# 3D point list with one line of data per point:
#   POINT3D_ID, X, Y, Z, R, G, B, ERROR, TRACK[] as (IMAGE_ID, POINT2D_IDX)
# Number of points: 293, mean track length: 8.7170407175038953
25723 -4.9432285373414278 0.81553041412146077 8.0611646457393977 114 185 188 0.14523427818926604 57 376 86 349 88 376
4970 0.19511224202929511 5.0709218816996255 8.7228213590225412 197 217 211 0.46532617299056273 74 3754 75 3574 76 2559 77 3454 78 2909 43 4623 79 2939 51 2203 52 2064 82 2104 83 2134 44 4477 84 2029 85 1103 86 1971 88 2051 93 950
25722 7.1146760654230983 0.18798310262505341 11.332208551832061 130 177 185 0.25499936565133141 87 339 111 385 88 337
25718 6.3000132297649998 -0.73628740819730099 12.436657124260302 168 201 202 0.3088516413394618 19 1288 88 193 25 1291 116 243 117 217 14 1750 119 308
4965 -0.28437027562348 4.9825636665003019 8.7444058741750244 191 215 208 0.12622201857198226 75 2735 76 2538 77 2331 78 2250 79 1193
25717 0.1559431240561911 -1.4225199629676384 11.825963855494038 192 228 235 0.43889835647919229 54 2405 88 165 27 225 89 164 118 163
4964 -5.552217698988188 4.6241113952812958 7.5819216584769187 60 140 159 0.73091660716501616 74 2842 75 2707 76 2510 43 1340 45 1403 46 1315
25716 8.0937445109311614 -5.4405523588595619 23.363125087609625 129 194 201 0.38661167867923857 58 83 88 67 23 61 27 82 91 36 118 64 120 61
4963 -5.8833566077231128 4.702637537451384 7.6285802872573356 61 139 159 0.6772158823187131 74 3744 75 3518 76 2508 78 2156 79 2145 80 2144 81 2175 83 2014 84 940
25715 5.008978421942949 -4.5200502661813058 16.305625029535129 112 184 190 0.29482967869056509 22 54 88 41 25 68 29 116
4962 1.8575079115404889 3.9415880769046221 7.6044070569191549 70 166 155 0.25821460608211461 75 2693 76 2495 77 1236
25714 6.3121972749465032 -4.5392688099011655 15.041545827400675 105 180 183 0.77739808603029692 22 1076 55 20 56 26 88 28 89 39 57 1322 59 1292 58 16 25 61
4961 0.01693246919954219 4.6108292704093365 9.0933600745070144 198 218 212 0.55843633948459015 75 2679 76 2475 73 4441 77 2285 45 2780 46 2633 47 1146 50 2137 79 1043 81 2126 83 1065 88 1004 89 959 121 920 125 897
25713 8.7616930533919319 -7.8214358594080302 19.684694668481999 109 181 187 0.50728054309552295 85 17 88 18 93 1058 64 1496 94 1231
4960 -0.77438496014782998 4.5164884158971681 8.8051135055746812 191 223 237 0.20743170626432458 71 3321 74 3657 75 3488 76 2460 77 2223 78 2119 79 1027 80 1020 81 1067 82 1928 83 1035 84 1918
25712 8.9399957587869423 -7.9824051081684226 20.164669571038715 109 181 187 0.38580724104342745 20 31 88 17 89 17
4959 3.0901209229065767 5.9570906408132176 13.033673576072969 156 197 205 0.28219153030761529 71 4326 76 2427 37 4020 34 4103 51 2152 59 995 60 1044 121 1545
25711 -1.6230998635831468 -4.8365472227821247 19.966417091688982 190 227 235 2.1321658967631967 70 2033 59 2858
4958 -0.0085495748324246404 4.54289054737513 9.1473144619566771 203 221 216 0.99307926514679978 73 3826 74 2798 75 2661 76 2425 78 2137 79 2107 80 2091 81 2123 82 1943 84 1939 85 1964 117 985
25710 -8.1629108367427072 1.9350230502928571 12.266409690921305 199 221 216 1.2928450679691625 56 3316 57 3048 58 3052 59 3293 54 3413 55 3337 60 3284 79 3890 81 3752 61 3290 82 3560 85 3383 62 3673 63 3693 86 3346 88 3334 64 3682
4957 -0.13016593341257118 4.4923493804128301 9.1180216739676041 204 222 217 0.92513972483689488 73 2929 74 2794 76 2422 77 2240 78 2134 36 5450 35 6083 33 6516 82 1941 83 2048 84 1926 85 1953 86 920
25709 -0.22968534473414787 5.1850450330198044 8.6440618990707936 111 180 177 1.8612327858077857 45 2893 47 2440 50 1132 51 1110 48 1219 53 1094 54 1113 55 1041 59 1050 50 2987 51 2190 52 2098 53 2171 55 2118 47 3257 57 2170 60 1079
4956 -0.14512538618125048 4.5931918312390749 9.2480153605147954 113 182 177 0.43820599201186755 73 2930 76 2421 77 2239 78 2132 83 1050
10448 -4.3840413125755617 3.3814887296928369 8.9277553389424682 178 209 211 0.23635961854913123 42 2457 45 987 41 2482
25708 -0.98179639948141928 -1.6893840340609432 10.460733799848159 125 193 190 1.1068520193455369 79 1393 54 93 55 1376 56 121 59 121 77 104 79 100 78 1358
10447 2.9382325981643884 3.0135749676472963 16.595394692420729 203 226 226 0.39044798178287898 37 3622 44 850 45 942
25707 -0.41052515696905428 5.256373974878688 8.4063229695537736 207 224 220 1.0803676398551318 39 5483 37 5486 38 5661 36 5950 40 4816 42 4726 43 4653 59 1047 48 3167 50 2265 52 2096 53 2169 80 2822 51 1113 81 2248 54 2183 56 2137 84 2088 86 2027 88 2042 61 2098 62 1114 93 1787 94 1929 95 2108
4954 -0.52117960057874224 4.5440667595899731 9.1970797884848441 108 183 177 1.1765356038525578 74 2719 76 2413 75 2599 73 2913 78 2122 77 2229 42 2777 44 2699 45 2762 46 2616 47 2320 49 2143 50 2125 51 2049 52 921 80 1023 82 1922 85 975 116 981
10446 3.9276435901107778 2.2836606021055958 11.277375473348298 153 196 207 2.3114056449161771 68 2906 45 847
25706 -3.5984394113774298 -3.632175652444281 18.163744221286564 138 156 160 1.3554167888175777 87 3098 10 4877 11 4435 9 5154 12 4217 86 3306 87 3437 88 3073 60 3220 89 2960 91 1944 94 2556
4953 -0.4918880449735456 4.375492839652356 9.3168718912750528 192 214 210 0.24239628610595634 74 3613 75 2593 76 2410 124 874
10445 -0.84442258700377204 2.3797702861452033 9.7213577120581132 146 210 197 0.65584274603544712 43 756 45 834 46 796
25705 -5.5116334657829036 1.7509816988118212 12.653225566047233 120 128 125 1.1733072689392003 53 3452 77 3802 78 3612 79 3436 70 6252 71 6057 72 5569 73 5269 59 3294 52 3658 66 7177 76 3854 51 3473 75 4179 50 3575 60 3466 61 3524 62 3473 63 3475 64 3377
4952 -0.68357083123965878 4.387586865933935 9.2878425756413669 185 210 208 0.297295153485163 73 2849 76 2405 77 1130 79 1020
25704 -0.44355227976470812 1.7882958059871357 9.961759252781702 91 128 139 0.1507396098611006 50 3257 67 6272 39 5178 73 4630 37 5628 38 5779 36 5709 35 5894 34 5807 40 5062 41 4998 65 6739 71 5334 72 4858 78 3108 77 3224 42 4965 43 4864 44 4718 48 3460 49 3294 79 3135 82 2378 54 2539 83 2483 55 2511 56 2537 84 2319 57 2552 85 2323 58 2536 1 7321 2 7145 3 6829 5 5890 6 5849 7 5552 8 5264 9 4950 10 4595 11 4327 12 4126 97 4863 98 4703 99 4480 100 4412 101 4307 102 3973 103 3382 104 3208 105 3063 106 2880 28 3187 107 2744 16 2885 108 2476 109 2445 17 2811 18 2637 19 2465 110 2404 111 1872 86 2272 21 2375 22 2066 59 2451 23 2132 24 2061 60 2529 76 3490 75 3765 25 2067 26 2134 27 2012 15 2156 32 2850 31 2478 30 2326
25703 6.3224357155015207 -1.9139180817925321 14.26858147022446 95 173 178 0.85009257476734035 50 2517 56 2373 59 2319 53 2420 54 2414 86 1320 87 1371 58 1488 57 1419 60 2395 61 2351 89 152 63 2453 94 2115 95 2349
4950 -0.94422335774352928 4.1608817265133808 9.4837485529323988 124 194 185 0.32279777128847797 72 2833 74 2629 76 2337 73 2759 75 1219 44 2560 45 2621
10442 -2.2538233334787803 2.2607976621944736 9.4505288605606079 101 167 183 0.055477050461387532 43 2251 44 687 45 760
25702 -1.3800691803482661 2.5630236915486786 9.3211920852024122 171 205 210 1.4982333132325338 51 1818 55 1708 59 1715 51 555 52 1708 54 1806 53 602 55 546 58 1753 60 662 60 1831 61 683 62 1873 63 705 64 791
4949 -1.3021878069909256 3.7275733158051896 8.27822560204703 114 189 180 1.0836597044597565 72 2829 75 2504 76 2330 74 2624 78 2044 79 2006
25701 8.9598480195746717 -7.7544369149260985 19.751406788903314 126 193 196 1.0223481696990888 81 3254 82 3149 84 3049 83 3427 85 2673 58 3474 59 3203 5 6088 77 3715 7 5618 78 3540 8 5318 10 4864 11 4419 12 4205 98 5215 102 4093 104 3383 14 3437 106 3031 28 3294 107 3098 109 2296 110 2544 17 3084 18 2718 19 2537 20 2494 112 2054 21 2181 87 3080 88 3056 60 3382 61 3157 89 2593 90 2531
4948 -1.4942849210676514 3.7606341419631435 8.6261955369479626 171 203 204 1.0157669938495586 70 5136 76 2329 79 928
25700 0.21855257837950615 5.3485957868040837 8.416450541293111 110 184 178 0.92239163457461615 40 4868 48 3229 50 3038 52 2121 83 2225 84 2114 59 1070 53 2198 85 2125 86 2590 55 2792 56 2154 57 2192 87 2122 88 2121 61 2115 62 2209 63 2208 93 1798 94 1944 95 2117
4947 -1.4307229446801502 3.6612291296859194 9.6618502930407466 165 198 198 0.35092890195794091 72 3768 73 3630 74 2561 75 2431 76 2265 77 964 78 941 79 851 45 2563 46 1028 80 1916 81 1956 83 850 86 711 87 733 62 884
25699 10.036243318276712 -7.3632825714329533 21.232043282406359 120 177 180 0.51215365089277232 54 1402 57 1316 58 1365 53 1348 52 2293 59 1289 9 20 66 56 4 20 67 2099 1 2452 2 2337 68 2124 3 2312 5 2068 6 2053 7 1967 10 1707 11 1682 76 1518 50 1383 78 1316 51 1375 98 1738 100 13 101 18 102 1548 103 1488 16 1313 17 1248 18 1191 113 43 60 1334
4946 -0.98542061836363082 3.2717424837339912 9.2964152256157657 73 148 167 0.59858669137424236 72 3712 76 2208 71 4934
25698 -2.4413755987584849 2.8565902115330304 8.0932536318960402 106 197 175 1.5651422835621329 52 2568 53 2653 55 1745 56 1744 57 1767 59 563 69 6545 67 6841 68 6527 70 6113 71 5960 72 5271 73 4681 74 4495 76 3579 77 3313 78 3465 79 3200 60 1827 62 794 64 888
4945 -7.3526830235986242 3.637504049252458 9.7475304151016164 177 206 204 0.64251083879645154 73 3566 74 3434 75 2343 76 2182
25697 -0.76365810857509331 1.5023401409485366 12.685402283073447 81 155 179 2.1115814728028406 59 3959 88 3772 60 3970 61 3998 89 3644 90 3595
25693 2.180728003618988 5.8372940419958645 8.0119081421667282 85 172 170 1.0102996125995181 56 3975 57 3938 58 3970 59 3882 60 3853
4940 -6.7212850490339875 2.2999689547479512 8.9347112022766915 98 179 173 0.31683539307935354 74 2223 76 1983 73 2352
25692 -7.3598854928735813 4.7430732570958023 3.5027290711612475 159 192 193 1.0293703190561707 56 3990 59 3878 61 3914 60 3891 62 4039 63 4037 62 4007
4939 -6.7234753923144863 2.2677928676398378 8.8367730506185218 107 181 176 0.20522846208565676 74 2221 75 3120 76 1982 77 1832
25691 -7.1284800712022687 2.5352513620448391 5.561929154089654 93 176 170 0.51408299752939846 57 3956 58 3990 59 3864
25690 1.7530729471500253 4.0472624668980242 7.8600346747355232 105 189 176 1.8462972049684769 52 3968 57 3931 58 3914 59 3836 60 3844 61 3867 92 3365 89 3529 90 3494
4937 6.8712083732181375 0.96612549077232091 11.082471520435204 121 174 184 0.33229504800208703 74 2099 76 1880 49 1740 81 438 56 400 50 480 100 3272 102 2067 17 2385 20 1491 86 1477 21 1504 22 2025 88 1524 24 1481 117 471 119 494
25689 -9.7635836560730098 0.54423496676797267 5.0511972107941654 98 181 177 1.3277783264837026 57 3911 58 3892 59 3816 56 3956 55 3941 61 3846 62 3985
4936 6.5074057075123557 0.61686587600861964 11.418180359346485 84 153 174 0.23988674862710013 74 2071 76 1871 49 1730 83 1573 28 1919 111 431 22 1415 23 1485 24 606 64 567 29 675 32 930 30 734
25688 3.726704788497416 6.8417855311322366 9.5069318283746185 78 153 173 0.80675643304980937 56 3902 57 3902 58 3860 59 3788 60 3795 61 3733 62 3869 63 3910 64 4000
4935 6.9590937792983816 0.57279799589593006 11.208364218284173 88 155 173 0.21237889696243112 74 2076 76 1853 78 1624 49 1736 52 1542 83 1578 56 1545 57 385 85 345 98 3407 101 3215 107 1639 112 1237 21 1464 113 1331 88 1520 24 1445 89 354 25 1443 90 1470
25687 -2.6261390753494238 6.1168459845052716 6.3286086135794068 97 180 172 0.68458946257904563 55 3885 56 3901 57 3899 58 3924 59 3781 54 3964 53 3994 60 3792 61 3821 62 3961 63 3988 64 4136
25686 -1.2349581503825056 3.8665691619510207 8.5907006865584918 165 201 204 1.0374184047527013 39 6193 49 4184 50 4097 51 3987 52 3964 53 3977 59 3764
4933 6.305407132212494 0.19460806791873264 11.781232197380056 88 158 177 0.2377089506833539 68 2570 75 491 76 1843 77 441 43 2027 47 1832 48 416 50 362 79 356 51 373 52 347 57 333 102 553 105 526 98 2194 108 463 22 1370 29 589
25685 -9.7176820387811542 3.2169356674161831 2.8870363077520604 63 154 152 1.4155347395137752 58 3907 59 3761 60 3772 63 3878
25683 -10.254982347376529 0.55437637452448896 4.327307970716868 179 221 231 0.82144355011562309 57 3787 58 3811 59 3738
25682 -10.1664636647221 0.54401664598888133 4.2804193751677575 179 221 231 0.94299786403245545 57 3786 59 3737 56 3773
25681 6.2689532836004833 -3.7631545784034284 15.632006613201078 167 214 225 0.76211107403995137 47 4580 59 3719 60 3727 61 3748 62 3881
4928 1.1761602002028579 0.099329432142126736 10.812111683083213 122 193 186 1.5367331866624261 74 3150 76 1774 78 344 107 2249
25680 3.8275152225208462 7.6833549678338322 11.003023770628898 134 181 187 0.34291309900305628 56 3752 57 3756 58 3780 59 3707 60 3796 61 3736 62 3872 63 3913 64 4144
4927 -0.10683681386386955 -0.33450981032521099 11.147707378377154 205 234 242 0.64616061181564932 74 1914 76 1765 73 389 72 1989 43 1904 44 1873 75 1850 45 2047 77 1608 108 373
25679 -2.8432303631568616 6.4060542793504949 6.3404235589174398 119 186 182 0.76043627559756111 56 3835 57 3750 58 3775 59 3700 60 3712 61 3727 62 3865 63 3765 64 3986
25677 -7.5009078462997296 3.5389245650582994 3.7893747382580529 87 174 165 0.43536429272586669 55 3861 59 3674 60 3691
25676 5.4686356484712082 -1.8633470055072718 15.460147082973981 94 172 180 0.46161218572538382 52 3858 59 3620 60 3616
25675 -1.1877848428464137 6.4657321963952326 7.2634290801057659 171 203 204 0.25528337293810882 55 3745 56 3748 57 3752 58 3639 59 3587 53 3731 54 3830 60 3561 61 3603 62 3741 63 3766 64 3991
25673 -7.8735710341066119 3.8124910815663204 2.2739784195868813 53 146 144 0.16131846516552975 58 3615 59 3567 63 3273
25672 -7.8649092805459144 3.8086697550364716 2.2695846601413203 53 146 144 0.23354734283906384 58 3616 59 3566 60 3326 61 3363 63 3274
4919 0.66667270204106399 -0.73048469429631457 12.074303753032714 132 194 194 0.9277927304226441 73 3173 76 1716 72 3313 78 1515 46 3094 50 2540 52 2412 53 1511 80 2412 81 2398 54 2435 55 2408 56 2424 57 2437 85 1383 83 248 103 1686 6 3875 7 3694 104 2495 109 1218 17 2264 18 1399 110 1931 86 1337 87 1386 59 1482 58 1522 88 2270 60 1573 89 1404 62 1613 64 1711 91 185 92 217 122 1085 124 1105
25671 -8.8506706633295984 3.2785114593893461 3.109609150288561 82 168 160 0.98081226513797914 57 3732 58 3749 86 3382 59 3545 87 3510 88 3381 60 3521 61 3566 89 3286 94 3051
4918 -0.19211593884055717 -0.69581634027715067 11.052494313663674 205 234 241 0.21632123599172071 74 3057 76 1706 73 3165
25668 -4.3122286587099588 2.6675359558196376 8.7064893513891608 180 210 215 0.38955761302650449 57 3564 79 3810 80 3661 81 3691 82 3576 59 3525 84 3339 61 3541 62 3683
4915 7.6864879369339221 -3.5598648692820647 15.639146863343679 162 202 207 0.46527630711972034 74 1732 76 1590 78 2351 79 1351
25667 -9.987455585449954 -1.8596901819661595 15.577399574856049 0 0 0 0.71635551067772896 13 4017 16 2703 28 3333 14 3478 17 2934
4914 7.7072910240484225 -3.5574220658757119 15.67827844088532 162 202 207 0.67024583852258846 74 1731 76 1589 78 2350 45 1885 72 1863 47 1552 48 1529 49 2533 51 1418 52 1356
25666 4.6973889047517829 -2.5419381649375907 18.719109522434174 125 193 196 1.0218519285243259 56 3514 57 3525 59 3444 89 3213 88 3297 87 3118 90 3158
25664 -1.0542328809563746 6.4712575313436114 7.3166108422716771 144 184 187 0.34095636618398217 55 3460 56 3459 57 3474 59 3397 54 3718 60 3148 61 3417 62 3574 63 3328 64 3505
25663 -2.0955897548333176 2.9521728734445944 7.5070728421504143 92 165 182 0.66436410570374427 53 3671 54 3658 55 3579 59 3333 88 3190 87 3198 85 2854 89 3089 90 2768 91 2601 92 2631
4910 9.9739036329522239 -6.6829344244752322 19.96501499365046 122 191 196 0.48779801642860982 74 1681 76 1521 72 1773 73 1774 75 1633 77 1406 78 1319 49 2493 51 1376 82 1213 52 1326 83 2278 81 2336 55 1302 56 1332 58 1367 8 1874 10 1709 11 2917 13 2691 14 2447 106 27 28 1378 54 1403 108 1109 109 38
10402 -5.1327610406146027 1.981002077801137 12.887266719291661 217 232 229 1.0447792402924716 69 879 66 2916 71 772 73 778 74 699 75 654 76 619 43 727 40 621 44 674 65 2929 66 3026 68 2776 70 2563 41 2219 40 2237 43 730 47 677 13 907 104 722
25662 -6.1744889629542694 2.3949724542673412 4.6349843183253778 93 177 171 1.1823150580111776 57 3373 59 3314 56 3330 55 3345 89 2786 115 2573 114 2583 113 2616 112 2486 116 2258 90 2762 26 2528 25 2483 27 2455 92 2628 32 2915 31 2933 30 2725 94 2766 95 2602
4909 9.9637308080317446 -7.0151632607481682 20.417174967067741 186 225 236 0.17973721827247008 74 2947 76 1520 73 3919 75 2818
10401 -1.7453278189298487 2.571717957457103 9.2998051228416472 105 169 186 0.11307274273316009 65 6313 77 1930 78 1804 37 5183 70 4126 39 4554 38 4664 36 5261 35 5399 34 5301 33 5840 40 4453 44 3407 69 4249 66 5684 67 5228 68 5053 49 682 50 601 79 625 80 598 17 1991
25660 0.69269999602468779 -0.9944643768731195 11.811120240999708 193 228 235 0.87911995579299418 51 3643 52 3624 59 3245 60 3233
4907 6.3997285174074303 -4.5330454212897964 15.251568981456696 124 195 194 0.70271889516311226 73 1766 76 1514 8 3249 11 2924 78 35 13 1616 103 1502 104 33 105 1364 28 37 107 61 16 65 109 1069 110 42
25659 -1.7507160074444323 -2.2025486112288397 17.832377906175033 141 204 201 1.62163625798014 49 3224 58 2983 59 3244
4906 0.21126093557404765 5.0611506880369426 8.5877859710048128 99 172 167 0.22174313496206435 75 1607 76 1418 77 1295
10398 0.099752410557656879 4.4173706621891382 9.6337700688028143 211 227 221 1.9057325849721902 39 6272 37 6370 38 6468 40 6043 41 6002 42 5976 43 5798 44 5584 72 5807 73 5500 74 5244 75 4946 76 4574 77 4282 78 4055 45 5517 46 5177 50 4223 79 4077 51 4125 52 4095 53 4110 80 3933 81 3938 82 3841 54 4077 83 3926 84 3717 85 3666 86 3606 87 3762 88 3739 47 4708 91 3354 121 2888 118 3068 94 3562 95 4028 96 4502 126 3211
25656 -7.4812494354599668 4.9511927748736753 4.3769665986965132 98 176 172 0.50761795443695401 56 3432 59 3140 57 3209 62 2192 64 3010
4903 -0.1393417177113746 4.9673852441602495 8.8066916632739609 104 181 173 0.38805084541161433 75 2738 76 1402 58 1071
25655 -7.5094326703529841 3.9637993636216042 2.0803133993740475 148 182 181 0.15288342285719742 58 3437 59 3115
4902 0.033553125937339695 4.8813637899312825 8.8499278311164478 119 192 179 0.087076390712791399 75 1532 76 1399 77 1283
11151 -3.8316910080847033 5.3939666048142136 8.3921148835013994 69 147 167 0.29555405470906254 45 3847 46 2726 47 2419
11137 -2.7370728882174755 2.8530270698174904 8.7538127573321933 119 195 182 0.41576314757381255 45 2397 46 861 47 2097
11117 6.1105001289466987 -1.0016925112053536 12.581037132101267 194 219 217 0.5799540899215635 45 1993 74 3073 75 1816 47 1692 46 1866 48 1664 50 215
11064 5.2475512309856267 -1.5233927924314108 15.376336557760771 187 216 216 0.5964701823132067 46 333 68 2410 47 276
11050 6.2485433617153276 -0.7575010510795831 12.499121025690968 164 187 187 2.1842797699271475 72 5411 73 5101 75 4590 78 3735 67 4989 69 6044 68 5537 72 5185 73 4557 75 4129 38 4455 40 4970 43 4159 43 5407 44 4989 46 4815 47 4354 48 3801 48 4168 49 3612 50 3535 51 3439 81 2973 81 3658 82 2841 54 3019 56 3270 84 3105 85 3050 5 5428 12 4438 98 4064 99 4875 103 3874 104 3084 105 3541 106 2282 17 2968 18 3057 21 1912 22 2339 87 3129 25 2345 64 3283 117 2395 91 2006 91 2771 119 1848 31 3121
11023 6.1348458171809952 0.25702986569591413 11.886193581523258 167 204 209 0.49583390956727169 37 3312 36 3386 45 2147 46 430 71 589 38 2099 49 406 70 537 54 386 97 610 104 524 106 507 108 462 29 664 30 663
10980 -5.307878424747658 3.7204236272308546 7.442500553683348 176 205 205 0.93210775674213941 45 5027 46 4862 47 3687
10902 -10.604427921860708 0.15413948927560195 11.897268920064764 131 200 198 0.61981727287758326 44 4700 45 4138 46 3908 43 4833 47 3525 48 3423 49 3268
10826 -0.7895987151593622 5.0950410745607009 8.2779020045628506 127 195 184 0.47979309793732106 45 3853 77 1350 46 2747 44 2821
10818 -3.5896695824674745 4.4897724125799732 7.6901651779388729 121 203 183 0.50193699091601363 43 3839 45 2739 46 2593 47 2298
10812 -5.6042820929208172 3.9819659795177116 7.2603781448505265 177 207 206 0.243706561231048 45 3664 46 2525 49 2048 75 2612 51 833
10797 -3.0823991315202091 3.1904683680540771 8.7362990231340572 114 194 184 0.38944463181788908 74 2495 75 2355 46 2362 47 2095
10749 -6.6470284911873536 5.2561425849218839 7.6004009295712507 72 150 173 0.1551103269034704 44 1434 45 1476 46 1394 47 1239
10666 0.31312139223643998 5.1238611432273178 8.632066550820074 121 193 181 0.48297949119011196 39 4945 37 5471 38 5070 36 5567 40 4798 41 4747 42 4701 43 4629 44 4484 45 4495 76 3751 77 3457 78 3302 46 3660 47 3271 48 3189 49 3049 50 3002 79 2950 51 2206 52 2111 53 2919 80 2839 81 2897 54 2849 83 2219 55 2133 84 2620 57 2186 58 2203 86 1977 87 2036 59 2105 88 1124 60 2164 89 1979 62 2208 64 1217 90 1971 91 1856 92 1079 93 1794 95 1137
10665 -0.10180368564113024 3.6296922161642686 9.9372875993121568 140 199 193 1.3098133653989752 39 4681 40 4568 41 4524 42 4499 43 4964 44 4819 45 4802 73 4275 74 4095 75 3910 76 3614 77 3321 78 3201 46 4094 47 3681 79 3238 80 2644 51 1928 52 762 81 2675 82 2539 84 1793 85 781
10626 -6.2526870787334854 4.9046103261711576 7.899177366534774 166 199 200 1.4593147839927507 43 5326 44 5244 45 5054 46 4736 47 4288 48 3635 50 3820 48 4226 51 3737 49 4045 53 3694 58 3430 86 2852 84 2965 87 2990 59 3096 60 3087 63 3556 92 2672 93 2610 96 3464
10544 -2.4510178454709965 2.2537140766451591 9.5544402990871635 134 200 193 1.0829894297950942 42 3494 45 3425 47 1989 46 2260 48 657 58 570
10387 -5.6542672373197558 3.9933957597051246 7.1497510746246586 154 188 187 0.76785598405785926 72 4661 73 4396 74 3637 44 4316 71 5101 73 3785 75 2609 76 3103 78 2083 45 4818 46 3465 46 4128 49 2050 83 1927
10312 -0.046732941267617609 4.9199763355376209 8.9952547327347503 210 226 220 0.82541787994410643 43 5059 76 3995 44 4890 77 3428 78 2853 92 2336
10306 -5.4612783659804336 4.1740135623487644 7.3463530833099542 87 174 166 0.47531742435217317 42 5460 43 5019 44 4840
10286 0.049087860589029281 5.4628557810544338 7.9391546320400916 126 197 183 0.95226330745757326 43 4713 44 4540 46 4303 47 3343
10273 -0.12192581156642138 4.9574727522916469 8.6445890849293576 122 192 181 0.97815968873554537 43 4616 44 4439 46 4204 45 3817 48 3129 49 2997 50 2952 51 2892 52 2822 53 2886 55 2744 57 2088 56 999 86 2550 59 2040 61 2067 89 1960 91 1032 60 2109 92 1063 63 1094
10272 -0.3731673670081338 4.9875099512864161 8.6097928806409563 119 189 180 0.46105688191644079 77 3028 44 4433 78 2887 45 4480 46 3640
10271 -0.40687838355269368 4.8478367387111616 8.5635252820582171 119 192 181 0.9811450373148316 77 3025 78 3288 44 4431 45 4444 46 4202 47 3782 48 3643 79 2887 80 2784 81 2839 82 2707 83 2775 84 2595 86 1950 85 2029
10268 -0.77262853978495849 4.5123378126324676 9.086796701553622 154 158 178 0.5670229609348465 41 5180 44 4399 45 4406 47 3753 54 2763 57 2740 60 2032 61 1998 96 2947
10267 -3.9467364042319413 4.4071058046930496 8.0063635222201857 87 159 180 0.11379671422630032 42 4602 43 4523 44 4387 45 3732 47 3156 48 3053 49 2926 50 2886 51 2032 78 2784 79 2814 76 3176 77 2968 52 1931 53 2036 80 2058 75 3999 81 2084 82 1910 54 2023 83 2022 85 852 86 809 87 826 115 1695 116 974 118 933 119 942 31 1206
10266 -0.23956626066202236 4.3641388436784707 9.3720112381356202 148 199 193 0.62339417479826087 42 5125 43 5015 44 4373 45 3712 51 2799
10265 -0.031580385319760963 4.3779128433264951 9.5974118885486881 149 207 195 0.2417358230053005 43 4517 44 4372 45 4382
10263 -5.6365779672070451 4.1038120048998392 7.3166406198251774 181 208 205 0.87388450983373556 76 3674 44 4321 77 3384 46 4132 47 3714 48 3584 51 1958 53 796 80 996
10262 -5.5565259825087203 4.0191925845993639 7.1609846092612441 181 207 206 0.6859695524267948 43 3718 75 3979 44 4318 46 4130
10261 -0.15295699829955442 3.7559745066309507 10.253142025768696 199 220 221 0.30843886677433313 77 2842 44 4274 76 3637
10259 -0.54018013995779002 3.4587339891267943 9.5038850474739842 129 200 188 0.58937818379460527 41 4523 44 4246 45 4310 47 3047 48 3555 52 2609 50 2757
10258 -0.64698352904888801 3.450807673102299 9.1960546496937994 101 162 180 0.53206284217744371 36 5340 43 4375 44 4245 48 3554 49 3382 50 3330 51 3250 52 3188 53 2712 57 2660 59 3050 60 2625 62 2722 63 2752 64 2881
10256 -7.4503974722502404 3.2586164609393222 10.020536410521418 116 186 185 0.32410026459465097 42 4446 43 4928 44 4231 45 4257 46 3341 47 2071 49 1902
10254 1.1961424633815458 2.1096166224184318 8.716311034474252 98 168 188 0.98565291004572952 42 4370 43 3414 44 4158
10253 2.8028963060667973 1.1133649058447022 11.987948663883827 93 167 186 0.34862909913216322 43 4242 44 4143 48 3448
10251 -4.719128450374722 1.2996802653742114 8.3425731142947974 102 181 176 1.0244055392759941 67 5752 76 2790 44 4115
10250 0.11611370697323734 -0.056174433736094376 11.346455119055443 142 205 200 0.78370934375671419 43 4817 44 4090 45 4683 46 4412 47 3495 48 3825 49 3250 51 3462
10249 4.808779522597967 -2.2264498190740833 15.709655751036376 204 235 243 1.0904093272546884 43 4118 70 3675 44 4069 42 4256 45 4088 102 2723
10248 1.0255022676966217 5.8574434565223372 8.5428461343484212 110 186 178 0.17395074473211494 42 4158 43 4020 44 3952
10247 -3.6104606843634914 6.4655853565886829 9.2966343497110699 203 222 221 1.1132929957516693 40 4910 42 4804 44 3949 46 3737 47 3338 91 1083
10246 -0.10637509641443434 5.4565154167133416 8.2153002950792704 131 197 188 0.73244235744077202 43 3986 44 3923 45 3958 46 3694 47 2528 48 3232 49 2368 50 3032 51 2249 52 2158 54 2240 83 2256 55 1112 56 1094 84 1157 85 2112 86 1130 87 1151 60 1090 61 1075 89 1178 88 1232 91 1091 92 1114 93 990
10245 -3.5729978385167214 6.4955524626419123 9.4733277707419781 190 213 210 0.47183588841540181 40 4215 44 3919 41 3070 42 3080
10243 -5.4043709466121328 5.4806363280369119 7.4765914038825132 50 130 155 0.20923103631178777 42 4798 43 3960 44 3903 45 3010 46 2793 47 2484 48 1273 49 1200 50 1097 51 1083 80 1277
10218 -0.017294643199283095 4.569879817521727 9.2614470226076033 218 232 226 0.75099264994913251 43 3817 71 5554 44 3714 45 3767 46 3567 47 3188 48 3080 50 2914
10213 -1.2050899232285774 4.3937188096318707 9.1119898103168957 198 218 215 0.64846886006441151 76 3137 44 3670 77 2929 78 3247
10209 -5.6060607440033143 3.8939752907414658 7.0304355422620102 100 184 169 1.8202323715999089 72 3923 73 3778 44 3632 45 3662 48 2174 76 1179 77 1082 49 2046 79 986 51 1956 80 876 81 1993 82 1811 83 906 52 795 84 828 85 832
10205 -1.8002098795476642 3.5468120357881481 7.934834171571497 126 205 188 1.0833954105182229 77 2161 44 3557 51 774 82 720 83 843 52 743 84 759 91 725
10200 -0.11844259954509612 2.9468306265900011 9.2570453253965219 132 203 192 0.77591237489302589 43 3550 44 3465 45 3525
10199 -7.3293532153599568 2.8719977124317757 10.704571013366479 136 201 195 0.31622166891489334 77 2696 44 3437 45 3484
10193 1.0860797724007818 0.11169697642158681 10.968231787569504 102 171 190 0.96098008257806244 42 3309 43 3283 44 3219 45 3314 46 1992
10192 -0.069614931250960355 -0.19616361658053824 10.912423260200082 140 205 198 0.36095963438750261 43 3237 44 3209 45 3275
10188 6.7009403484076007 -0.85378785821346415 12.150192429403626 96 174 177 0.31863474993148422 41 4898 42 4261 43 3210 44 3132 40 4297
10181 4.2983565709697542 -2.9636024967183094 15.455182096893028 146 207 206 0.41714458285573447 42 3187 44 3077 43 3141 45 3190
10180 2.6696851233001047 -2.1835642844745435 12.679217782375721 207 236 245 0.68810301625669801 43 4067 76 2659 44 3067 45 3147 58 1435 59 1346 61 2338 49 3184 90 127
10178 3.5681306365069498 7.3429787609052877 11.598841502401781 151 194 203 0.11264320888052415 43 3062 44 3012 56 1210
10151 -3.0135350685431934 3.1766301153392882 8.5881358437340634 122 198 186 0.27137235335383425 41 2412 42 2385 44 2397 40 812 45 2461
10134 1.199250935900144 0.06946488695749832 10.883410298769931 129 203 194 0.52886486947115763 43 1985 44 1964
10130 0.051924915235085509 -0.4185304949941 11.134891088038671 213 240 248 0.3119361837192115 74 1911 44 1877 75 1852 76 1766 45 3279
10125 0.22667385728074507 -1.5291138507408311 11.731567819905484 134 198 200 0.6878965978335464 42 1736 43 1756 44 1738 45 1908 46 148 47 157 47 163 48 136 79 118 78 153 81 180 52 139
10107 0.45713156145692058 5.0387921980684762 8.0549410502974226 132 201 189 0.56783551980019864 43 1534 44 1399 45 1526
10097 6.1024032585723642 4.0355494703145407 10.476044523753249 79 154 175 0.10884681468144033 73 1295 44 1100 45 1200 46 1145 99 1652
10092 -1.7526815469480033 3.2025056208573153 7.986659537606295 112 197 180 0.48942631072954429 77 962 44 910 78 936
10089 4.5224417634117939 3.0122374326015624 12.614002688656466 153 197 208 0.053461549109803851 40 783 44 852
10088 2.2871346871399356 3.3442745305895483 15.739517313960732 159 209 210 0.33812365046292375 41 2443 42 814 44 847 46 973
10082 -7.5359840918675651 2.955091463309266 10.417990080724909 140 197 194 0.38758938487029504 42 752 43 840 44 794 41 742
10076 5.9636980448654695 1.3440391034663619 11.527691523359906 121 179 193 0.14398676364424642 68 2662 44 585 10 2463
10070 6.3057436818538202 0.40884653482750322 11.661301514702787 110 171 188 0.12927375893044821 43 532 44 470 8 792
9998 -5.2954667039817389 5.1739151034038562 7.5067734971252351 42 124 150 0.36239300341017117 42 5831 43 5593 44 5358 45 5218 46 4886 47 4413 48 4130 49 3915 79 3710
9986 -3.6463468495822222 4.8987426638307054 8.3036161288891464 60 141 167 1.5240759656180922 40 5920 43 5486 44 5098 52 2812 53 2101
9980 1.2221068423337691 5.8744534997396798 8.8777076639767483 111 191 180 0.20581940509310273 41 5713 42 5533 43 5359
9979 -3.6675040735832956 6.3953045545746976 9.694830778638913 186 212 211 0.38753979673733246 41 5583 43 5357 81 3436 51 3583 82 3354 83 3414 84 3251 85 2997 87 3055
9978 -3.6383187586199019 6.3530775318156367 9.6153345014541074 186 212 211 0.65179781821558413 40 5792 41 5712 42 5521 43 5356 41 5582 44 5125 45 5084 46 4755 47 4139 48 3967 49 3737 50 3677 51 3582 53 3567 82 3355 54 3293 83 3415 56 3180 84 3252 85 2998 87 3054 88 3000 60 2147 89 2521 62 2858 63 2199 90 2478 91 2354 92 2373 93 2652 94 1921
9966 -0.086244894713916082 -0.2091768755203198 11.096703387238943 138 203 197 0.52232251197959501 74 4669 75 4428 43 5200 44 4996 45 4948
9963 0.0074742224038360054 -1.121412305600499 11.093935177715814 125 195 193 0.61391515831058652 42 5277 43 5161 45 4613 44 4608 46 4621
30507 -8.0367604485834399 2.1231948641981324 -0.20222489885895348 159 192 182 0.63832596098584271 125 2352 126 2502 127 3020 128 3126
9961 -5.6436354181726518 5.6146239054654927 7.4480473148679991 60 138 159 0.13899113331423463 42 5258 43 5138 44 4532 45 4538 46 4296 48 3207 49 3067 50 3022 51 2958 52 2080 82 2144 81 2291 83 2178 84 1118 85 1137
9960 -5.6334895207107207 5.4836579001830641 7.4486439748032485 56 135 159 0.16060561499526596 42 5528 43 5115 44 4932 45 4539 46 4255
9955 -5.4212644252687303 4.8013231707055057 7.5172439713020411 44 126 150 0.10411373459669988 75 4048 43 5063 44 4419
30498 -7.6646078981097308 -0.72593272037941059 -0.21697177399936754 114 186 191 0.29747453791961243 31 2836 126 1921 127 2278
9952 -3.5805995990198944 4.6570544364034268 7.7552624853977239 72 150 170 1.1640584160236578 41 5193 42 5487 43 5050 40 5250 39 5424
30496 -19.764944876496997 0.43908024366354159 13.113304056424369 197 225 233 0.75443783929606034 123 1742 127 2211 121 1672 118 1237 119 1230
9950 -5.4745048996633354 4.0738951829957237 7.2836912621897998 92 181 168 0.50758193437373134 75 3980 43 4999 76 3107 44 4839
30491 -0.17087691045413636 4.7476972339887755 8.8748676043305554 166 198 197 1.3124500798046899 94 2447 95 2030 127 1999
9945 0.022928578761581133 -0.22082235766905542 11.106046188472414 215 240 248 0.99330703991206137 41 4248 42 4910 43 4804 44 4665 46 3901 47 3490
30488 -13.461158877351663 -0.17081012320146707 12.873155544916564 175 218 223 2.0234217714937706 58 407 127 1401 128 459
9942 -3.3748659761660322 -2.9881894355101992 14.077625319897122 200 232 240 0.76330675425630989 74 4301 43 4755 46 4339 50 3134 82 2808
30487 -13.455805088527212 -0.15525426329578335 12.84325981520395 175 218 223 2.1784028552129868 58 406 127 1400
9734 0.64806052165861394 0.79484812629714408 10.65305962826891 112 177 194 0.22519891488658528 69 2608 70 577 43 496 4 3001 3 3118 5 2832 6 2918 8 1019 10 894 99 2256 101 695
9941 -3.7706805509392223 6.4910066088272576 9.4500063379040071 197 218 214 0.7783135197974631 41 5301 43 4734 45 4550 42 5264 46 3735 54 2236 56 2837 57 2211 82 2776 86 2021 88 1217 62 2201 91 1832
9940 -5.2513331052313408 5.7303132123672107 7.4853314677941283 76 152 172 0.9784456019649258 42 4819 43 4725 44 3945 45 3947 46 3725 47 2556 48 2448 49 2329 50 1175 50 2302 51 1162 52 1117 52 1118 82 1164 83 1312
9918 -1.2934953196898793 4.1716278785907033 8.4814315873616195 131 196 186 0.65417327401402903 38 5871 43 4489 44 3664 45 3692
30458 -6.2141750545933343 5.0883164934162615 7.6727928002015222 51 120 142 1.4484317720856192 94 2837 123 2648 76 3742 78 3527 79 3543 80 3203 82 3098 83 3137 84 3003 88 2582 89 2878 85 2965 91 1748 90 1869 92 1784 94 2436 95 2686 126 2521 95 3157
9912 -1.6725582019782519 3.3944081148291536 8.466721307466436 72 150 171 0.67046966698184007 41 4521 42 4496 43 4370 44 4241 45 4304 46 4086
30446 -5.4623306229020798 0.85988838470466089 -1.1022452940588843 33 141 127 1.8326452231922443 125 2760 126 2940 124 2464
9900 4.6480636873080119 -2.371971740409708 15.569302485326833 206 235 243 0.53910551609776758 40 4287 41 4207 42 4255 43 4117
30438 -8.7167217696180295 1.9318041717806398 0.054534769661022858 45 140 136 0.73561431513030529 124 2639 126 2739 127 3553
9892 -3.6820169560594 6.4420618598305843 9.576163332502551 192 216 213 0.47206084367870677 41 3065 43 3978 40 3113 44 3917 45 1649 46 1576 89 1057
9888 -0.054550851383813 5.1793060017212582 8.5303118786081207 126 194 185 0.46212193497729964 78 2309 43 3941 77 2400 44 3814 45 3864 46 2768 47 1278 48 3175 49 2278 50 1134 79 2942 51 1112 52 2105 53 2185 80 2236 81 2259 54 2189 56 2141 84 2090 57 2178 85 2105 58 1150 87 1064 59 1053 88 2048 60 1088 92 1070 96 1294
9886 -3.6632617396988278 6.1710716204132359 9.8173256707801837 130 198 194 0.38957281129781174 42 4099 78 2239 43 3924 44 3856 45 2950 79 2224 77 2382 81 1226 93 934 48 1294
30407 -7.6722913986089782 3.3278447337256787 3.6380255255503764 84 168 165 0.51944754644466395 120 965 126 861 127 913 128 1117
9654 -7.8348202680939751 2.6533504802936001 10.616364006931384 214 229 222 0.55675994897545467 40 5827 41 5767 42 5741
9861 -3.3079418558968658 2.650827695639947 8.4239524446992888 117 192 183 0.10925984721892355 41 3482 43 3484 40 3549
9860 -6.6237881967809606 2.2816932013930096 8.8282442573430426 98 182 176 0.10992703132293215 42 3479 43 3419 45 2255
30405 -0.31899365055677364 4.0067243345981041 9.7071811667906189 165 197 196 0.27183207600895104 83 1887 126 801 84 774
9859 -6.5553332529818116 2.035413970049718 8.7987060060395965 99 180 178 0.13877261485672127 42 3476 43 3388 44 2133 45 2253 46 2190
30402 -3.0281233365671758 3.0164674069356905 8.6833794857347346 72 147 169 0.21223158118033172 94 708 126 624 93 603
9649 0.43861733879708215 -1.1436157984347768 11.862516117927875 137 206 198 1.4787425576871172 41 5727 72 5542 42 5699 43 5523 52 3760 53 3623 79 3748 80 3603 55 3660 56 3663 105 3657 59 3456 60 3419 61 3482 63 3434
9856 0.01546594613947912 -0.10647272452322326 11.200995563110185 148 207 203 0.72704990343732612 41 4247 42 4283 43 3278 44 3214 45 3278 46 3135 47 2790 48 1753 51 1605
9853 5.7192293538168579 -1.5904222052930286 14.334897288764688 203 222 221 0.37446156856304508 73 1992 43 3200 45 3245 66 5380
9850 -0.3781434121538792 -1.0646388861991845 10.834431546447441 140 207 200 0.57286042279921812 42 3139 43 3127 44 1728
30342 -0.39499382679166284 4.6964170425617056 8.8689827633745129 186 210 206 1.0557371649759566 70 5733 78 2845 79 2881 69 6251 94 1865 62 2158 122 879 125 2042 61 2052 92 1793 127 1948 128 2383
30339 -9.0286158045183029 -2.3221884717722361 16.977045819576322 167 196 202 1.1383989715111755 19 1909 21 1825 26 1907 27 2247 111 2134 112 2103 113 1783 110 1884 109 1875 29 1998 118 1758 32 2576 125 2125 58 2411 115 2191 117 1743
9586 -4.3671785543927797 5.55524619357496 7.928835103342327 72 147 167 0.075886229782029552 39 5524 40 5344 42 4758 43 4695
30306 -8.8873028986739726 1.4018741486675887 0.59326088161764834 182 208 200 0.5453886053146132 123 2464 124 2435 125 2524 126 2724
9553 -7.4007678448608267 3.205945820620125 10.271109676070244 201 221 218 0.93531949130575143 40 5484 42 4447 13 3918 9 4988 10 4849 8 5301
30302 -0.87494574110608114 -0.74323964603049075 12.604479149308617 143 198 202 0.53392276920632353 20 2693 124 2350 125 2451
9756 -0.66506174503994875 3.3351676952923248 9.3832297309757084 112 167 182 0.060748956282287325 40 833 43 959 44 924 45 1023
9746 0.88841701016750696 2.4055022112810196 9.1013967194813148 154 211 210 1.0080602931357772 35 4589 43 760 46 798 39 3555 47 1996 49 702
30286 -0.49532720387905865 3.1995903755466935 9.5388379539939994 0 0 0 0.019156838856007465 19 2695 29 1789
9533 -2.2719817694315507 5.7071124207417094 8.722099625270161 163 200 205 0.20969609583076604 39 4997 42 4108 50 1205 81 2245
30272 -2.814639089855119 1.4434548983464268 9.4479030713202174 108 170 188 0.70977443942531115 10 4574 125 1304 126 496 105 3061
9519 -3.7759134772332503 4.7241314467960303 7.8827625627357722 57 139 161 1.2331225758896089 39 4081 40 3983 42 3954 43 3844
9726 -4.9083451338806023 0.35826034075882707 7.7794827515592724 116 188 183 0.45832130964894024 42 0 68 3724 43 113 45 196
9687 5.4773859709151083 -0.3063562187053549 13.092079451716321 78 112 121 0.15742148281021451 39 2061 40 2030 38 2069 41 2011 42 2053 45 2138 43 2001 46 411 48 390 51 309 52 325 82 240 54 272 83 267 55 245 57 319
30200 2.6027725203507615 1.2383805990501562 11.49205129040253 0 0 0 1.5043387370696761 26 3176 90 2702 89 2742 91 2808
9447 -6.8796520857444303 2.6036000095625327 10.7499785826483 203 223 219 0.37938481666049012 73 3407 42 2292 72 3545 71 3916
30139 -0.63664068289428932 4.3858771839078292 9.3465630645440161 166 198 197 0.48133751376844375 59 854 76 2407 89 1806 123 864 124 870 121 837
9386 6.5054924862252639 0.38442164277060831 11.550169589619902 105 168 186 0.19902428861802907 70 618 42 398 49 424 8 805 9 862 10 813 11 783
9593 -0.27470923834800048 -0.64427266954119145 10.982832717988817 130 201 195 0.49481630727124976 41 4890 42 4866 43 4766
30136 -3.6701373964077106 2.9976277147457844 8.5764181004920115 110 185 182 0.30582332288331893 76 2969 123 1378 124 632
30132 -0.065189280343676895 -2.1518476170980021 -3.9175382760753741 106 188 162 0.41200812667444731 122 2037 124 424
9574 -3.4572925512612298 5.325283107850483 10.408337369315904 168 205 210 0.95799592745142959 42 4645 43 5053 46 4198 48 2248 49 2933 51 2883 53 2829 61 1983 35 6403
30119 -1.2518272843582261 -0.091977684870459514 13.867993308309295 149 199 198 0.43914975719483695 21 1289 117 280 123 1127 6 3938 7 3789 8 3526 9 3371 102 1840 103 408 104 1713 105 1643 27 1920 101 3786
9573 -3.5751696241252779 4.6683170290248421 8.0596960453700532 118 203 183 0.73231271076174576 41 4687 42 4643 43 4570 44 4424
30116 -7.4837339030722809 2.0200584236930643 8.6529182655283208 176 190 186 1.4208593254480282 31 3781 122 2882 112 2930 113 3047 114 3021 115 3017 116 2882 120 2890 117 2943 118 3061 119 3015 120 2904 121 2871 121 2883 32 4302 123 2906 124 2904
30115 -6.3336541715478978 -3.1763242750154865 17.68862281228251 146 190 193 0.97994475553348004 13 3994 28 3527 20 2517 22 2518 25 2557 26 2325 27 2230 15 2613 29 2696 30 2824 122 1952 95 3303 123 2048 76 4045 80 3600 81 3645 82 3525 99 4968 72 4756 73 4529 97 5403 98 5222 100 4902 102 4393 103 4115 59 3433 61 3479 52 3615 54 3369 79 3577 56 3508 4 6444 2 7198 1 7379 3 6874 5 6099 6 6048 10 4891 57 2966 85 3203 8 5334 7 5641 9 5021 11 4602 12 4395 84 3073 101 4609 104 3638 14 3660 105 3501 13 3993 106 3410 28 3526 107 3249 16 3218 108 2962 109 2801 17 2928 18 2745 111 2667 20 2516 112 2675 86 2944 22 2517 87 3111 88 3086 115 2433 114 2423 60 2908 89 3205 62 3398 63 3417 25 2558 64 3600 90 3151 27 2229 91 2965 51 3087 119 2627 15 2612 92 2782 29 2695 121 2307 30 2823 93 2369 94 2936 96 3648
30109 6.2979177043386967 -2.7210119305541087 14.04881433487563 82 167 168 0.81401951981875587 24 1209 89 1304 25 1185 23 188 22 144 27 1186 123 132 21 160 26 198 27 167 15 1267 32 1712 31 1464 30 260 128 347 59 58
9558 -0.77133938407065084 3.9924433606503698 9.8768678998542434 150 209 202 1.0910400832381593 39 5311 40 4593 41 4554 42 4556 57 1902 83 2622
9540 -4.8936320056925391 0.55268383987056713 8.0692860377246127 97 179 175 0.70230382049665685 41 4886 42 4237 43 4783 44 3137
30078 -4.7736929860873971 -3.5560467428388423 19.155611967338231 166 211 214 0.34424529464358888 27 1808 123 1684
9532 -5.044887721280003 5.3346694177746725 7.5413842549740684 61 141 166 0.080507503712685266 41 4070 42 4089 43 3961 44 2869 45 2931 46 2795
30061 -5.1830700728315442 1.5516617543067968 13.629779047779021 156 204 207 0.19103674184057462 25 442 31 585 123 403
30029 0.40836315471461077 -1.1567265230638535 11.22814363275377 108 184 186 0.96106516708300194 92 3378 93 3254 94 3499 95 3953 96 4420
9276 -4.426918823646762 3.2706018444893568 8.9564989625367364 132 201 189 0.34256530145219344 39 5678 41 5051 42 5048
9483 -5.0997854138139331 5.237545155117278 7.5413283243272753 64 143 166 0.085112904115604945 41 4066 42 3000 43 2898
9453 -3.580665800559327 3.0611967831510865 8.8399372009198327 99 164 181 0.23023989952723967 40 2379 41 2407 42 2378
29994 -0.64610780950452529 5.1185330831896545 8.2007364242156786 83 168 166 0.1835125032068268 63 2871 64 3034 96 3019
9241 -1.9130681879641229 2.9067078543519953 8.7776036219434328 93 159 174 0.1152932030659002 38 5366 41 4450 42 4424
9448 -3.0797423253699789 2.9270834304580928 8.7847643174069656 131 206 192 0.25290748034873906 40 2385 41 2338 42 2310 43 2370 45 913
29936 3.0208271341485817 1.9760076764998293 16.554377337963327 133 150 150 1.8732566905629839 87 3654 88 3635 89 3449 90 3405 91 3133 92 3284 93 3161 95 3853 94 3478 84 3657 86 3534 87 3703 88 3678 96 4295
29932 0.65448325288121345 5.2744220537277968 8.5525859730529081 93 174 170 0.778532947726152 60 1110 62 1145 90 2006 91 1105 61 1098 95 1150 82 2763 86 2600 87 2716 88 2692
9179 -4.6180059225697079 5.2500699882787938 7.6954346809607488 45 126 152 0.063918004260919162 39 4248 41 3005 42 2949
9377 -2.2686076281173948 -2.2630720501646051 14.200862241250201 153 209 212 0.2832085499260632 40 23 42 60 43 140
29898 -10.906078170245133 -0.46655598612005422 3.5910076486967157 174 222 232 1.2372272297949545 93 3151 95 3743 92 3268
9145 -7.1579411079064998 2.8350760212395243 10.954948960390825 198 220 217 0.48174737829135239 73 2428 41 2319 72 3587 71 3974 102 3108 104 2769 62 701 31 739 32 899
29885 2.3885555434508983 3.4143108159402131 16.094159615663973 141 192 197 0.33221638765367306 60 2574 95 3077
29876 -7.5402906269955912 4.877172025930185 3.9511085503076924 79 162 165 0.60041199153321656 63 2193 64 2239 95 2772 96 1273 94 1067
9123 4.2760375701084135 6.9380545469751107 11.028186206415111 109 175 193 0.17683185267110754 34 4350 40 1681 41 1678 42 1678 43 1666
9321 0.42831033382055722 1.9295255277148686 10.264440033270365 129 187 202 0.22108914477283323 40 5825 41 5760 43 5426 45 5157 47 4234 48 3851
29845 0.30965914674127593 -0.14086277002798375 11.034988949772284 121 186 191 0.37253311603312272 88 2268 91 2031 92 2045 95 1585 89 2179
29838 2.8370145558439477 7.2605879535230029 12.058263445349938 79 163 170 0.31175591439015232 64 2390 95 1238 63 2278
29822 -7.3872102202792673 1.197323472187241 4.5993854818534929 126 191 194 0.68895346810121172 117 2810 122 2651
29816 -4.583866105575555 0.33296197302284503 13.768712994056713 120 155 158 0.58443038991670937 15 1423 118 305 24 1941 26 2001 120 1172 15 2042 18 2537 122 238
9063 -6.5687375340493626 3.2093740163951439 10.816171981391086 130 198 189 0.35135312846201644 37 2354 39 2445 38 2518 40 2425 69 3096 66 4712 67 3106 65 3224 68 3014 70 2913 71 1217 72 1070 73 1053 41 848 99 2729 98 2914 97 1488 100 1352 101 2634
29797 -6.3108675016456734 2.1545427882503669 4.1332651254598014 129 186 180 0.77288632575868055 119 2837 122 2669 121 2688
9220 -3.9133164458538063 5.814286124100474 8.6805340983016031 125 199 185 0.11034356795605516 38 5166 39 4987 41 4074 42 3007
9197 -7.0678721206289934 2.8767877280865521 10.807922326565846 131 199 194 0.88685068916245102 72 3589 73 3444 41 3518 42 3547 103 2914 105 2651 106 2495 107 1794 75 2206
9188 -10.250402522873404 -0.64739166793576763 12.026473075905589 135 202 199 0.31241211292019611 70 3739 41 3262 45 389 46 355 76 315
29727 -1.2686739839728109 -0.65889657577022465 14.335705793791202 155 201 207 0.56232898918539764 107 2174 122 163 108 1970 110 1239 124 279
8974 -4.6345113733152026 3.9163221292374293 7.9841700638586941 51 132 155 0.99300751917357988 67 6765 40 5172 68 6543 41 5101 42 5079
9181 -4.5902501780419529 5.2627147552998599 7.6999441265511042 82 154 174 0.13024736357181743 39 4250 40 4143 41 3007 42 3003 43 2900 44 2872 45 1561 47 1248
29726 -6.8031503864398504 -3.1196863505507961 17.812695224488895 198 230 237 0.63305930931104493 114 91 122 105 117 81
8973 -1.5549028064817525 3.4470466179105261 7.9417698157160617 78 155 174 0.31710903419483311 39 4643 40 5157 38 4758
29709 -3.4724096526893375 4.3754860980563919 7.6313765710937496 111 194 180 0.71472805257515448 59 2670 61 1981 93 1643 62 2088 94 1798 72 5346 74 4592 75 4343 80 3168 126 1653 122 1451 120 1991
29706 -3.5407423010149404 4.5407089421547457 7.7718393608999889 123 198 187 0.47380834209507178 48 3058 52 1936 53 2828 54 2752 87 1921 56 1946 57 1965 88 1936 60 2022 89 1867 94 896 62 960 93 758
29691 -6.4325163457008783 -0.86219889109424186 -1.0875874829386813 27 141 119 0.24542506169332856 93 3296 94 3524
29680 -0.3379043457216539 4.8302227385182483 8.6923735343127664 88 168 170 0.41354017998626008 62 3729 63 3756 64 3769 94 3265 95 3669 96 4046
9110 0.12167911479830534 4.9237251031734388 8.7366419836059706 218 234 227 0.41201495074598976 38 3051 41 1383 42 2867
29629 -1.2461757727536997 4.5305841269344169 9.2704069051608951 159 196 197 0.38588218477522207 59 1956 94 1809 127 1045
8876 -0.11097294648368708 4.2346498206805085 9.0938244619907849 158 211 200 1.0781699916315548 38 4002 40 3843 37 4690 41 3805
9078 5.1350865795883971 -0.31544857751104038 13.786231134330851 142 193 207 0.40480447975895445 66 555 41 456 44 449 45 458 67 493 49 366 4 714 1 2962 3 662 5 644 7 553 2 664 8 500 9 446 10 524
29612 -0.31963645516862976 5.0496535468387966 8.4533287278902058 168 199 197 0.34552825544987603 87 2020 94 1097 86 1954 84 2603 95 2103 96 1289
29582 6.2503551069646672 -1.9348494356897605 14.250288589415435 136 184 193 0.47705391865037317 59 2893 87 2224 88 2217 58 2958 57 2963 89 2100 25 1861 91 1959 27 1840 26 1917 15 1941 92 1965 93 1946 56 2371 61 2349 94 1340 122 1007 123 1711 124 1653 125 1067
9007 -4.6711355977605882 5.1642328587793926 7.6741733695596066 72 148 168 0.12871193250435339 78 2926 40 5611 41 5553 42 5213 43 5098 44 4914 45 4467 46 4224 47 3805 48 3658 49 3017 50 2973 79 2921 51 2914 52 2806 53 2096 80 2810 81 2871 82 2059 54 2085 83 2113 55 2007 84 1998 85 2018 87 2004
29533 -7.9480551247314271 3.6250329641522629 2.1149596955578551 144 184 181 0.37526961326546998 91 2326 93 2259 96 2258
8972 -0.12534099644932487 2.632227917445586 9.0325223534899948 163 221 204 0.86871260184148891 39 5644 40 5107 41 5026 42 4998 43 4896 50 2729 49 3329 53 2638 54 2603 55 2543 61 688 64 795 96 914
29501 1.970330179120886 2.4986365753321294 15.571007420197121 160 199 209 1.8467351315750582 85 1557 89 493 93 1390 86 2298 87 2368 94 569 94 2715 95 1723
8944 -4.8186760495014358 4.5533888914701057 7.7240203790912592 50 131 155 0.047550155223036177 72 4059 40 4723 42 3948
29472 -5.2485035367774326 3.4749781183575519 9.0495267356906961 133 194 196 0.22833071175297925 61 750 93 598 125 594
29459 -5.6779341643924548 -0.91138634044831934 -1.2754113144506651 32 133 125 0.48747591061483292 92 1230 93 131 94 173
8913 -7.5079933885441479 -2.0386726499505907 14.490319187880335 218 243 248 0.74962306726296291 67 4940 40 4254 68 4748
8894 2.9192850958594638 4.4315685108758283 7.9301615953738436 114 178 192 1.1654575277907757 39 4071 40 4037 41 3950 42 4664 76 3739 43 4596
