# 3D point list with one line of data per point:
#   POINT3D_ID, X, Y, Z, R, G, B, ERROR, TRACK[] as (IMAGE_ID, POINT2D_IDX)
# Number of points: 318, mean track length: 5.7105014191106909
3101 4.4036042903038011 1.1666457351064849 9.4608780586273831 176 167 141 0.08410004464994747 20 5106 19 5247 18 5015 15 4287 16 2820 14 7169 10 6730 13 6893 2 6602 5 7646 11 10276 7 12182
5006 4.4159276828220593 1.3976070857361587 9.3109243127980434 55 52 54 0.17979116989279514 20 9176 19 9356 18 9437 15 7758
13376 -3.4870489403323037 1.9177955396514119 11.914264739055941 105 117 117 0.051787240558254288 10 10804 5 7528 11 10196 7 12230
3103 3.4776149289062492 1.1356133405277606 8.9607490155185179 88 83 79 0.0595538341734409 20 5152 19 5250 18 5072 15 7487 16 4861 17 5174 14 7244 13 6948
3104 -0.67299951042536932 1.2559379900249981 7.7526107812042255 40 39 41 0.21863895017332399 20 5345 19 5254 18 5253 15 4430 14 4544 10 7144 13 4319 2 4090 5 5847 11 6877 7 12175
4803 2.2159363010896258 1.2975767538052572 9.6015170496160973 55 52 50 0.054877077659023069 20 8798 19 8985 18 8957 16 4723 17 4901
3105 -0.66640063802812854 1.2931842862757841 7.9152404058842052 46 44 46 0.34570138020039831 20 5333 19 5255 15 4431 17 4774 14 7666 13 7347
3920 -2.0060539512872588 0.72655738755025923 12.868346821197715 47 50 59 0.32821319961782691 20 4312 19 7165 15 5797 16 3262 17 3675 14 3733 10 6167 13 5658 2 5801 5 5318 11 6097 7 9634 6 9236
3114 1.0982641534365603 1.4669025767144015 9.2173575857305696 43 44 47 0.15110551764897717 10 7084 19 5273 15 4416 16 8818 14 4462 13 7268 2 6943 5 5914 11 6981 7 6029 4 6885 6 10323
3119 -0.17692045250879368 1.404916526057749 8.4086316190138053 44 40 42 0.29394295963355843 20 3477 19 5280 18 3056 15 4455 16 2927 17 2859 14 4546 13 4332 10 7172 2 7040
4515 3.1931871017381694 1.221779672084651 13.18921130246521 57 62 67 0.19015862863319052 20 7330 19 8381 18 8180 15 6350 16 7647 17 4413 14 6787
3120 2.8548233596919284 1.2475648880039636 8.9787178081680068 150 142 134 0.12025207684316933 10 10550 20 5220 19 5283 18 5138 15 7571 16 4925 14 7374 13 7082 5 7715 11 10337
3121 3.5766529888893066 1.1639848945938327 8.9114982750096345 166 162 151 0.2378936446085512 20 5197 19 5284 15 7541
4000 2.1115227126387799 0.32934313000993709 10.369252638676734 241 200 129 0.039446755611552198 20 7339 19 7326 18 7815 17 4077
4533 -1.6225873647922118 1.4871284029099432 11.960203166631832 55 60 64 0.12593434796571587 20 7817 19 8419 15 7034 13 6746 7 5819 6 9926
3130 4.2711199473995594 1.2501624288924067 9.4101811248092613 94 95 99 0.39940626467610935 20 5181 19 5310 18 5097 15 4360 16 4897 17 5326 14 7276 13 6997
5038 2.8801538639967266 1.3844145928957712 8.5206115378584801 76 68 66 0.20186809943845907 20 9355 19 9411 15 7855 14 7629
3135 0.75006644369630604 1.5472974286115249 9.1931555445800264 46 46 49 0.19778379764509843 20 5316 19 5318 18 5196 15 4467 10 3926 16 4950 17 4936 14 4522 13 4316 2 4088 5 3423 11 7034 4 6400 7 6071 6 11361
3136 1.2015838891119341 1.4925238514894001 9.1603475749824348 69 66 64 0.095772241795238786 20 5303 19 5319 18 5191 16 5769 17 9111
3037 0.97325410746313468 1.2992828577692979 9.4030271969422454 139 131 120 0.59324377656384009 20 5070 19 5106 18 2897 15 4246 16 2763 14 4300 13 7015
13310 2.0534737684510946 1.504331650988094 7.0687854229386984 48 50 51 0.025843022265115805 10 7589 5 6887 11 11205 7 8300
3137 2.1887157605871099 1.1772946334270171 8.294987595134705 61 56 56 0.25840539602898427 20 3312 19 5321 18 3058 15 7619 16 1710 17 1746
4080 -2.0411557829894416 1.6044699653011247 12.051368699680671 54 54 58 0.16499913367891983 20 8408 19 7485 18 8458 16 7931 17 8137
3141 2.6837896413711504 1.3221993644513341 9.0235694044322674 198 194 178 0.10702357551663183 20 9057 19 5328 15 4419 14 3489
4084 1.4584886729625388 0.68621445540038617 10.304125288545617 59 59 61 0.082961584830108168 20 7105 19 7489 18 8160 16 7659 17 4279
3145 3.6540145175860133 1.1272275459819541 8.6004242259602215 158 138 124 0.19962910133138015 20 5264 19 5334 18 3038 15 4379 10 6821 16 2940 17 3184 14 4282 13 7026 2 6702 5 7692 11 10307 7 12198
4088 4.7049164533830767 0.59135813785642644 13.756769425014353 57 71 80 0.050885867470122192 10 9036 19 7493 15 5947
3146 -0.15303270797900934 1.4620344134280718 8.411864825076325 35 36 39 0.12313220873210651 20 5387 19 5335 18 5274 15 4508 16 5040 17 8975 14 4583 13 4364 2 4905 10 7230 5 5968
3149 0.69008643505830525 1.5567501325706234 9.0998616097417635 106 105 103 0.35283824940944525 10 3932 20 5344 19 5339 18 5224 15 5218 16 4977 17 4956 14 7667 13 7375 2 3320 2 4101 11 7052 7 6080 6 8694
4092 4.7274690990563943 0.9678732404612379 13.721389659061691 102 109 108 0.048116965671304864 10 9431 20 7847 19 7499 18 4298 15 6706 16 3952 14 6477 13 6081 11 9537
3151 2.3521882004939219 1.1639036036322348 8.2173244781977886 184 165 149 0.097180575104844416 20 5329 19 5341 18 5254 15 4429 14 4386
3152 3.5422488593367225 1.1393082411248145 8.5701634950778036 226 230 231 0.4191102816327047 20 5279 19 5342 18 3046 15 4394 16 2952 17 3141 14 4297
4547 1.255869195732247 0.29504251624767841 10.551776435517903 188 175 163 0.061727372812195168 20 7208 19 8443 18 7741 15 6777 16 7241 17 7639 14 6640
3873 1.1616703173965137 0.37094316466529859 12.796719884292775 125 121 114 0.1152034218180064 20 6809 19 7072 18 4033 16 3674 14 6576 15 6691
3157 4.4461349447959639 1.2626622970043395 9.3607466370572734 215 198 193 0.19870587293365233 20 5221 19 5349 18 2996 15 8742 14 7293
3168 3.6605774980004768 1.1439407828146622 8.5527685553171722 149 134 119 0.12424644604286535 20 5290 19 5366 18 5219 16 5050 17 5375
3169 -1.3382212190480332 1.497157496831844 7.9451724535194499 61 58 57 0.077837910528715859 20 3212 19 5367 17 4820
3984 5.0090896289832889 0.57872495845615612 13.710708831455273 47 55 63 0.19583195694386807 20 6906 19 7290 18 3768 15 5949 14 6679
3173 2.1814244635442299 1.2107556796106502 8.2132628044144305 133 115 108 0.078687111258548589 20 5366 19 5375 18 5285
3988 4.1413151510738135 0.47398561302010772 13.740129220799167 54 59 66 0.24510664723667527 20 7031 19 7300 15 6816 10 8890 16 3675 14 6586
3992 3.8621003197592252 0.4696805642498828 13.377530892606792 111 114 111 0.095466164299016498 20 6860 19 7314 18 4058 15 6828 16 3701
3178 4.5813972524428941 1.3164808576742539 9.4521246040184952 67 60 62 0.20793018697137317 20 3189 19 5386 18 3106 15 4424 16 1695 14 4304 10 6874 13 7072 2 6752
3181 2.1979469511413416 1.2227373396375183 8.1905813607400582 70 58 57 0.41739306644263835 20 5390 19 5391 18 3112
3996 -5.3087531414654858 1.6720191259306947 13.719261880611962 73 83 86 0.24304501216949598 20 8166 19 7320 18 8202 16 7646 17 8164
3183 0.84433294235816536 1.6379323880380283 9.2155443849320378 93 87 85 0.13809087733159933 20 5393 19 5393 18 5268 15 4538 16 5025 17 5016 14 7724 10 11166 13 7433 2 7115 5 8058 11 10694
4579 5.2192767103200994 0.4470125345039056 14.793450378929293 93 112 118 0.054978952876041931 10 8822 20 8103 19 8499 18 3979 15 6757 5 9214
3184 -1.201338068019191 1.5293803675550961 7.979322253218978 45 44 45 0.26505346161040261 20 9357 19 5395 18 9589 15 4578 10 7375 14 7904 13 7610 2 7258 5 6033 11 10614 7 7921
3185 3.082601812943023 1.2529684645458237 8.6143640567864992 53 50 52 0.66981421282010578 20 5349 19 5396 18 5263 15 4465 16 3556 17 3779 14 7456 13 4234 2 3958 10 3807 5 4101 11 6976
4064 1.8154223142048396 0.42168279974993689 10.385122588067924 65 59 53 0.26292022576806678 20 8121 19 7453 18 7903 15 5986 10 6054 16 7409 14 5785 13 5528 2 5627 5 5394 11 6134
3189 4.0289178968655088 1.2338841268702425 8.8544116199906764 162 150 137 0.24948295897768044 20 3358 19 5404 15 4446 14 7381 13 7103
4068 5.0100133145583232 0.55229691955868199 13.765710808006505 104 111 107 0.029662301717622977 20 7134 19 7460 18 7643
3193 3.7108362648960256 1.1756385107782867 8.5018987857898445 168 143 127 0.14775158038652447 20 3056 19 5410 18 3086 14 4340 2 6779
4597 4.5468769571758338 1.0837103774446666 13.780220488564057 61 66 70 0.080851413460248059 10 9556 20 7910 19 8536 18 8051 16 7504 5 11054
3194 0.85030843091431141 1.6649595338337764 9.2246324622001907 44 43 46 0.17204703237419355 20 5408 19 5413 18 3092 15 4552 16 2969 17 2989 14 7753 13 7456 10 11208 5 8098
3197 3.4177579265776243 1.2227062556852619 8.5378677248108268 68 63 63 0.19948071010398502 20 5362 19 5418 15 4475 14 4377 13 4221 2 6826
4076 -1.9732606285303844 1.6143015189016738 12.179656205705626 62 69 75 0.16532585638142508 20 8395 19 7478 18 8449 15 7084 16 7916 17 8128
3199 2.9418828388461864 1.2914304652898818 8.5963379429955378 136 121 112 0.26580644777994827 20 5381 19 5423 18 5295 15 4499 10 7005 14 7511 13 7240 2 6892 5 5957 11 10481 7 12361
3200 2.3030810925593541 1.2248513012525104 8.1038381591449422 53 47 48 0.12152493110615731 20 5423 19 5424 15 4514 14 4466
3857 -4.5834205668791625 0.88881444291504208 16.573277031949772 57 63 72 0.30665703856019422 20 6846 19 7044 10 6109 18 4040 15 5706 16 3642 14 3671 13 3501 2 5438 5 5180 11 6016 7 5601 4 9180 6 9235
4368 -6.0091407804208901 0.86452161493148538 18.955556107268617 85 107 116 0.34997427987128965 20 6751 19 8059 18 7425 15 6589 14 3604 13 5483 2 5378 5 2038 11 5080 4 5552 6 4636 1 7258 3 9156 8 10670 12 7563 9 10791
3203 2.0068523699260199 1.2112975782180493 7.8772796710953807 73 60 59 0.26214878402854536 20 5454 19 5431 18 5383 15 7780 14 7589
3204 3.0842090532877182 1.29578859010318 8.5794976890295853 105 95 91 0.41309426362249507 20 5399 19 5432 18 9502 15 4515 10 10765 17 6334 14 7522 13 7248 2 6899 5 7911 11 10502
3861 -2.2141098720062731 0.54457184725765684 13.119416386006103 50 56 63 0.11215526405399269 20 6163 19 7050 18 7638 15 5699 14 3627 10 6025 13 3457 2 5575 5 5104 11 5955 7 9452
3205 3.2655144774107114 1.2628605186319914 8.5307585065661495 58 56 57 0.50088774428332106 10 6988 20 3164 19 5433 18 3115 15 4504 17 2740 14 4421 13 7223 2 6876 5 5950 11 7001 7 6018 4 5982 6 10209
3208 0.018624994063302036 1.7418373937949152 9.0087316186160962 127 121 112 0.16483796353385241 20 5467 19 5439 18 5343 15 4608 14 4693 13 4465 10 7365 2 7235 5 6126 11 7152 7 8070
3865 -7.9762452102436976 1.1915596929850014 17.67496854154297 63 82 90 0.17493943693125166 20 6901 19 7058 18 5729 16 7048 17 7141
3869 5.4247518608678593 0.24674682082374066 14.901818930072759 48 56 64 0.15720226166455989 10 5811 19 7066 15 5211 14 8593 13 6060 2 6135 5 5250 11 8922 7 9622 6 9198
15168 -1.9509937146263148 2.1533591591938048 7.1670709580954224 56 56 58 0.16333022071066131 11 2611 7 2319 4 4317 6 3779 1 3727 3 4131 8 7831 12 8634 9 8089
4895 4.1547246180479442 1.2621074178708063 9.4614111123271964 141 132 128 0.22371441672017831 20 5176 19 9152 18 5084 16 4876 17 3149 14 7282 13 5973
3214 -1.2948984518958846 1.6291316013570443 8.0229254141020085 59 49 47 0.41844958737237442 20 9447 19 5451 15 4650 14 4784 13 4545
3216 0.41623747698552604 1.7104582468790313 8.9866373369105901 46 43 46 0.22872926645147063 20 9337 19 5457 18 9553 15 4611 14 4675
3937 -6.6163743511670301 1.3701994397555541 15.897897583749872 89 105 111 0.3852870372071136 20 4381 19 7204 18 4222 15 6072 16 3849 17 2114
3219 4.4524367889393037 1.3887668508719291 9.304506955777315 52 51 53 0.11142561763559052 20 3141 19 5465 18 3082 15 4513 14 4382
3220 1.9920650699983011 1.2364958945279623 7.8508028222376893 57 48 49 0.50692278034697358 20 5481 19 5467 18 5413 15 4559 17 6225 14 4524 13 4320 10 3887 2 4059 5 3415 11 6999 7 6003 4 6605 6 5299 1 6941
3941 1.1307464778265413 0.40889435243286226 10.450485218087476 50 53 55 0.15431943338066076 20 4343 19 7215 15 5802 16 3922
4378 -1.5137402719424933 0.39840482321397286 13.943325703303724 52 57 64 0.35331153403262372 10 5923 20 8063 19 8077 18 7477 15 6559 16 3586 17 5973 13 6259 2 6348 5 5017 11 5908 7 7841 4 9087 6 9032
3221 0.7898516117934824 1.7306367536748 9.1390757326701486 129 126 120 0.11690655808243411 20 5472 19 5472 18 5359 15 4614 17 5091 14 7840
3224 0.44479206245522951 1.7163800242058047 8.9402303404476111 96 98 92 0.080504352068276358 10 4071 19 5476 15 4623 14 4687 13 4466 2 4224 11 3969 7 3573 4 3934 5 3545 6 3369 1 4068 3 3796 8 7595 12 8286 9 7474
3945 1.9809019407179291 0.35239631247615122 10.413398668350419 88 83 73 0.30900414036121177 20 4313 19 7220 18 4203 15 5786 10 5071 14 3605 13 3461 2 5362 5 4064 11 6082 4 9171 6 5475 1 7321
3228 3.9040113171573188 1.2300417232839103 8.4606470599392249 85 76 74 0.30408887967370213 20 3185 19 5485 18 3137 15 4524 14 7461 10 10675 13 7207 5 7914 11 10504
3949 3.4882927075578314 0.56052805203559453 13.586297940114555 44 52 58 0.26011203938494376 20 4125 19 7230 18 3776 15 5179
3230 2.4959499708814885 1.2222548812298093 7.9032426286609816 184 147 112 0.055357821359794647 20 5486 19 5489 18 5423
3232 4.48486153112467 1.4027768752622938 9.2651288495715409 51 49 50 0.054394027116896733 20 5392 19 5491 18 5298 15 4529 14 4403 13 7216
3889 3.1604981191294925 0.34694575044619552 13.595034656813191 50 55 62 0.43471274399053766 20 2378 19 7097 18 2207 15 6681 16 1993 17 1052
4052 4.3549402624801816 1.1855652252996134 13.55063290738526 67 72 77 0.076975141547087497 20 7849 19 7434 15 6622 10 6824 14 5786 13 5620 5 5433
3248 0.80064780601861407 1.6868061730684136 8.8217264577004446 54 50 54 0.25091585168976371 20 5515 19 5511 18 5400 15 4646 17 9331 14 7874 13 7601 2 7227
3841 4.9565901912338566 0.25578730426923979 16.826539082718494 49 59 69 0.19723779275564682 20 3001 19 7013 18 2807 15 5593 14 6276
3251 -1.2214726869231125 1.6466900921714609 7.8630636537084495 75 63 60 0.10734263157310947 20 5597 19 5519 15 4713 17 9104 14 4829 10 7524 13 4589 2 7410 5 6174 11 7173 7 8088
3252 0.04609423730270662 1.8116024378385274 8.9390569135565148 43 42 43 0.17754526051836578 20 5527 19 5520 18 3183 15 4678 14 4751 13 7673 2 7321 7 8160
3845 -1.9882560381243404 0.44990496566104327 12.949886851293998 49 53 60 0.22550637059520465 10 5972 19 7018 13 5471 2 6441 5 5041 11 8691
4410 -1.2874161804049269 0.42193268334247153 13.624774565529433 58 63 68 0.098145314848216744 10 8851 20 8125 19 8143 18 7518 15 6618 14 6607 13 5604 5 8820 11 8700 7 9412 6 9047
3253 0.85837188725465718 1.7810762617311979 9.1308515353410531 130 131 132 0.38393043651973069 20 5511 19 5521 18 5393 17 3071 2 7250 10 7380
3256 1.1451522733096895 1.7931760741460254 9.2551343655207372 53 50 51 0.56270044706693456 20 5508 19 5526 15 4657
3849 -0.33415882349429016 0.48185097811623501 14.710794810265007 67 71 75 0.087527474081367962 20 6764 19 7026 16 3585 13 3314 2 2415
3260 1.8738727807229167 1.3061472376697407 7.8253252827081683 54 47 48 0.14325392404133883 20 5539 19 5532 15 4619
3853 5.0335917828305563 0.20409191824084388 14.991662151880195 49 58 66 0.480090415620262 20 6654 19 7038 18 6210 15 5609 14 5540 13 5346 2 5208 5 8947 11 6028 6 9160 1 7362
3262 -1.210901173928983 1.6619957981694897 7.8445538092576008 131 113 101 0.13998672268447587 20 5613 19 5535 15 4726 17 4990 14 4846 10 7550 13 4607 2 4385 5 6197 11 7192 7 6223
4432 2.6273224063988452 0.25777374960477722 13.721086251678541 67 74 78 0.080292876944406344 20 6710 19 8194 15 6563
4641 -1.0856832383577761 1.0405528581127514 8.4639066680210853 133 121 112 0.91745597186325534 20 3699 19 8647 18 3252 15 7191 16 2663
3267 4.183881570208027 1.2902028287725547 8.5721137268239236 114 104 99 0.15512792126859515 20 5459 19 5540 18 3162 15 7831
3268 3.7891454799931465 1.319035766712237 8.5127657853660583 44 42 47 0.1919004934623271 20 5478 19 5541 18 5406 14 4467 13 4296 2 6925
3925 2.9355050344420017 0.50076709578825274 13.643334449437909 45 49 56 0.14866083292850635 20 6853 19 7177 18 4053 15 6814 16 3693
3269 -0.97552106972362262 1.6517321842911206 7.8520043625892217 51 48 49 0.64786456397249825 20 9566 19 5543 18 9807 15 4729 14 2661 10 2417 13 2560 2 2448 5 2366 11 3995 7 3589 4 3937
4959 -0.83062036743335599 1.459425553174617 7.8170649352232333 107 99 93 0.21439312492707802 20 9375 19 9271 18 9614 15 5221 10 7341 14 4709 2 7232 5 8013 11 10579 7 7878
3278 1.8513907744656513 1.3408860765113138 7.8442365374995706 56 50 50 0.13295088032771762 20 9481 19 5556 18 9778
3283 -1.0739406372484235 1.6729021939587365 7.8230137479843984 61 57 57 0.17103496121003275 20 5647 19 5565 15 4749 14 4867 13 7817
3284 3.6778069672449512 1.3571459672023465 8.5202557264207908 50 49 52 0.1661617003490663 20 9397 19 5568 18 9685 15 4607 14 4499
4442 2.6709514057606891 0.27116246178175324 13.736160150731374 62 66 70 0.11237520258576439 20 7973 19 8219 18 6286 16 5677 17 6116
3294 4.378775786583363 1.5101210950655826 9.1631244125494131 60 58 59 0.021995031315907781 20 5499 19 5588 18 5407
3296 2.4868657943294186 1.3130854714540456 7.83076088177976 69 61 58 0.43549529092581729 20 5588 19 5593 18 5529 15 4664 14 7749 13 7458 5 11293
3953 4.0054177023709334 0.50338325067975409 13.207881955186011 95 96 95 0.2239139695504323 20 4132 19 7238 18 4087 15 5780 16 3733 14 6648 10 5993 13 6416
4464 1.34018569473354 0.45395046781617754 14.747310112804341 50 54 59 0.92780310141351108 20 6757 19 8253 18 3978 15 5652 16 3577 14 6556 13 6280
3299 1.964035422183493 1.3481585300256818 7.7463457028323504 42 39 41 0.10401411958750841 20 5611 19 5599 18 5547 15 4691 14 4637 13 5008 10 7251 2 7139 5 6090 11 7113 7 5774 6 10668
3300 -0.094772537445308225 1.7626064000772286 8.3361428404480513 41 40 41 0.33939363738719303 20 5639 19 5601 18 3279 15 4768 17 5148 14 4830 13 4600 2 4369 10 7538 7 5316 11 7279
3957 0.92652364585745606 0.40917062600721316 9.9877240034659902 144 136 130 1.0675847462909973 20 4037 19 7244 18 3657 16 3980
3301 0.64651490465402583 1.8051444920872761 8.7466868511781701 54 49 52 1.3433821671576704 20 5607 19 5605 18 9788 15 4754 14 4790 2 4314 10 4167 5 3645
3304 3.3834982182954545 1.4191434105202356 8.4389226857445969 240 227 214 0.11151717677616844 20 5562 19 5608 18 3250 15 7953
3961 3.9806636549562526 0.53223292624054996 13.205894075136127 46 50 57 0.19517394382337411 20 6903 19 7251 18 4093 16 3749 14 3586 10 5090 13 3453 2 5369 5 4600 11 3355 7 5846 4 6780 6 5662 1 7449
3308 4.3736919079683947 1.5382493997236129 9.1296801062926356 65 61 63 0.12318197064690235 20 3272 19 5617 18 1839
3965 2.576670506497698 0.669923151983289 13.539668349078609 75 81 81 0.15204135183817152 20 6933 19 7257 18 3900 15 5829 16 3797 17 3550
4991 2.9807266014221718 1.3211951505559052 8.5778221196184727 57 52 53 0.15527463445192954 20 9255 19 9328 18 9529 17 5368
13583 -2.1368022237766784 0.33857926375366904 13.360879563430389 112 126 128 0.041479468918665385 10 5898 5 8741 11 5870 7 9332 6 8967
3310 1.2556501189717559 1.836789762345814 8.949222585853434 56 52 54 0.032776370734299821 20 3333 19 5625 18 3261
3312 0.79183448809124501 1.9714674283440603 9.1856522325987093 112 107 102 0.12528424885664144 20 5624 19 5630 18 5504 15 4784 17 5269 14 4811 13 4596
3905 -5.5708420791685 1.2141475031899678 17.074664779032087 54 67 77 0.29038198899327178 20 7282 19 7134 15 5796
3315 3.4693817065823365 1.4559250995456527 8.4568391461523955 251 237 211 0.51274620307812557 20 5591 19 5635 18 3278 15 8008
3316 -0.99884428867791986 1.6864887844640772 7.5386831394858458 44 42 43 0.42735125686864983 20 5725 19 5638 15 4828 17 5117 14 3527 13 2610 10 4311 2 2518 5 3680
3909 -7.2029469190143427 1.4003883178906293 17.885208599252735 72 85 94 0.2373341320947778 20 6947 19 7146 18 4139 16 3751 17 5998
4474 -0.4011149480872459 0.98772517501965995 10.330937722829086 60 57 60 0.093160040604701885 20 8241 19 8275 18 8326 15 6290 16 7850 17 8096
3320 -1.0320647599461759 1.695581094435886 7.5445444767701844 120 102 86 0.21535131519093623 20 5728 19 5643 15 4833 14 4955 13 7924 10 11786 2 7557
3913 2.6390294643250298 0.45631754994218177 13.40402320536294 45 49 56 0.15851620933107388 20 6835 19 7156 18 4044 16 3684 17 3951 14 5691
3917 1.1865667327217182 0.3214068745330711 10.516650384414572 89 80 78 0.20354572456254535 20 6930 19 7160 15 5746 16 3241 17 3587 14 3589 13 3435
3326 -0.74076585049660959 1.7493105815935512 7.795369288287918 136 139 130 0.93206728375599801 20 3405 19 5655 18 2840 15 4837 10 11772 14 8233 7 8255
3760 -0.93356546320182765 0.046748079678139987 16.592370074220749 88 96 95 0.086472546668126149 20 6564 19 6861 18 6134 15 5517 16 5529 17 5837 14 5507 10 5716 13 8307 2 8508 5 7185
3329 -0.15871291095224366 1.8261372416041968 8.205788757578258 83 73 71 0.050123536154185078 20 5709 19 5660 15 8172
3764 -5.1190830516945578 0.33811971324777151 19.381465453241635 81 97 105 0.31481300343632951 20 6614 19 6868 14 5579 13 5342 2 5222 4 9014 6 5311 1 7169 8 10595 12 7485 9 10737
3333 3.340601487839542 1.4742688491401708 8.3263596392299526 65 63 64 0.044323894545512083 20 5644 19 5667 18 5791 15 8760 14 7797 13 7540
3337 3.8456965585990455 1.5023584272254957 8.5579973655191441 48 45 48 0.040864692170427624 20 5626 19 5676 18 5559 15 4737 10 7231 14 4600 13 4409 2 7104 5 6192 11 7200 7 8085
3338 -0.73017759654972725 1.7665264418926896 7.7115487829373288 128 132 130 0.23128913537512466 20 5747 19 5679 15 4859
3772 -7.3294961460462158 0.49172115382157472 19.653015508864243 69 84 95 0.15061637826116303 10 5002 20 6642 19 6880 18 6195 15 5548 16 5582 17 5798 14 5623 13 5370 2 5254 11 5804
3341 -0.78010459749243732 1.7592317153869579 7.6456498398902832 74 76 77 0.12226175970313084 20 5759 19 5683 15 4864 17 5194 14 4983
3344 4.0668824478350238 1.453135976714319 8.425678069045798 96 87 83 0.65887170713480825 20 5652 19 5686 18 5585 15 4740 14 4585 10 3948 13 2800 2 4113 5 3574 11 3986 7 3563 4 5298 6 5810 1 8058 3 6339
4227 2.6258097561158338 -0.14019202439834919 15.783480155762653 120 141 143 0.15688034782097032 10 8393 20 6151 19 7777 18 6077 15 6196 16 5459 17 5880 14 6053 13 5778 2 8440 5 8639 11 8543 7 9275
3712 3.2986611778318808 -0.40558775719433693 16.074440423110183 138 148 150 0.33035929607628883 20 6441 19 6788 18 2701 15 5432 10 6209 16 2439 17 2021 14 5363 13 5922 2 8368 5 5028 11 5757 6 8818
3345 1.2626948117226973 1.8945964385872629 8.826171395779193 105 99 93 0.40498718982045645 20 5695 19 5688 18 5589
3716 -0.59235521982934169 -0.20686410532022559 16.674520402222349 48 57 66 0.26957882495079144 10 5635 20 6488 19 6793 18 6059 15 5463 16 5440 17 5780 14 5424 13 5230 2 5090 5 4054 11 5738 7 7709 1 7134 3 8995 8 10582
3349 0.27795703546412615 2.1552255406681691 9.2336679643952362 58 57 60 1.0294315150081947 10 11865 20 5704 19 5697 18 5587 17 6220 14 4926 13 5024 11 7500 7 6517 5 6472 4 7197 6 8133
3720 -6.6108749446246327 0.10522708283181199 19.333366984854248 47 62 75 0.5281381685512716 10 1671 19 6798 15 2532 16 5493 17 3797 13 2402 2 2323 11 2179
3353 0.25852412585758588 2.1669293864745161 9.2305120548966251 114 116 114 0.28383361297093007 20 5710 19 5704 18 6419 15 4862 14 8225 13 7935 7 8631
3354 3.4258244898809123 1.5038325773645427 8.2976396666498502 104 97 93 0.095421807077376158 20 5683 19 5706 18 5614 15 4780 10 7282 14 4662 13 4453 2 4172 5 6216 11 7227 7 6221 4 6191 6 12012
4245 -0.57962316170868278 0.077670548951757318 16.559107384703925 47 54 64 0.17654412585718293 20 7651 19 7811 16 6597 14 6206
3357 -0.72557250486896452 1.8578430083831272 7.8874170119764173 97 84 73 0.027523320397468836 20 5769 19 5710 15 4889
13632 -0.98675163817457889 0.61313430686833748 13.415277952785715 48 55 64 0.031213028614075908 10 9078 5 9027 7 9581
3359 4.1819706709485693 1.4832522411506175 8.4748473154482014 170 157 147 1.5738493327767795 20 3422 19 5714 18 1349 15 2712 19 2001 14 4601 13 7500 10 11111
4750 3.2484486115633491 1.1197675597058063 9.5980457147286327 56 56 58 0.11845275278235547 20 8658 19 8893 15 7302
3360 -0.16296158677222472 2.1244170361989148 8.8950588063080431 54 51 53 0.08340797179307452 20 5732 19 5716 18 5622 15 4882 17 5569
3664 2.3076376375420868 -0.56784156460585056 16.139068136132437 48 57 66 0.52355751949794826 20 6398 19 6721 18 5961 15 5388 16 5342 17 5739 14 5137 13 8564 11 4940 11 11390
3361 0.79845938253715021 2.068929689420747 9.0800265896647794 124 122 117 0.22891049009139994 10 4304 19 5717 18 5606 15 4856 17 5373 14 4903 13 4692 2 4460 4 8822 6 6142 1 8295
5059 -1.1894423673953969 1.6688758885339599 7.8417775985337421 85 75 69 0.072273899464210312 20 9575 19 9444 15 8063 17 9133
3370 2.4482938571557606 1.4967911317314297 7.8500823963377959 41 41 41 0.29502325344376118 20 3421 19 5732 15 8159 14 4748
3375 3.9622610849470719 1.5308720284777075 8.4218253823638349 112 103 98 0.25154801899226886 20 3389 19 5740 18 2849 15 4796 10 4008 14 4649 13 4458 2 4168 5 3634 11 5590 7 6251 4 6503 6 12057
3376 -0.71669350358062134 1.6762539141507273 7.1984673231853229 75 69 66 0.40157705408395739 20 5845 19 5741 15 8332
4259 -1.2752078282919683 0.11692068281914218 15.296382695020796 52 60 69 0.07640670717988178 20 7725 19 7836 18 7221 15 6296 14 6285 13 6255 10 8544 5 8637 11 8526
3744 6.3789642914930873 -0.36661273573389302 19.069855131395723 67 84 95 0.12741046826769742 10 4841 19 6832 15 5462 14 5368 13 5188 5 7206 11 5837 7 7793
3377 -0.78709255205601969 1.8270627151765526 7.637037553284812 64 62 67 0.15539797610644585 20 5824 19 5742 15 4937 14 5055 13 8096
3386 3.5602993758324466 1.5542376206843134 8.2683469634909716 172 152 144 0.79193025063399936 20 5731 19 5759 18 5670 15 4823 10 2926 14 4713 13 1512 13 7640 2 2193 2 7215 5 2086 4 6050 6 12088 8 7742
4277 0.1968550592606049 0.12380573626801482 15.871324630627612 108 124 122 0.39001606779712494 20 6610 19 7873 18 6170 13 5943
3391 4.5316619603280852 1.6178142252569987 8.7357080155284095 122 116 112 0.078543441817801721 20 5712 19 5767 18 5646
4782 -0.29641826604004207 1.2388628623750695 8.5442406344950736 153 143 132 0.061422377552607189 20 10393 18 9085 16 8645
3824 -1.9867798900577824 0.36118095632680591 12.865852956836036 133 156 159 0.21317382655939979 20 6785 19 6984 18 4016 15 5623 17 3791 16 3640 14 6603
3393 0.70239706709254224 2.140662883040771 8.9505541315235693 64 67 70 0.19040887890643551 20 5781 19 5771 15 4943 14 2766
3828 -0.20625937536765448 0.38074070814161615 14.902049870475503 51 56 64 0.20952610836630811 20 6714 19 6991 18 6279 15 5613 16 5666 17 5984
3397 0.037710277290204756 2.2396489136229736 8.9667611684717308 181 176 168 0.14814539476694114 20 9814 19 5779 18 5682 15 4986 14 8397 10 7920 13 8129 2 7724 5 6620 11 11521 7 8815
3832 -6.8846130898241986 0.98798060286020684 18.836262046761263 75 91 100 0.30212878050326852 10 3227 20 6792 19 6998 18 3994 15 5661 16 3574 17 5899 14 3646 13 3467 2 5421 5 4411 11 5095
3401 -0.78094773163720288 1.9115950001365281 7.6683318562681668 57 55 55 0.1067970761179428 20 5883 19 5787 15 5018 17 5311
3402 3.8359467140137555 1.5965977881258018 8.3499912338601519 255 251 213 0.83530427460055701 20 3439 19 5788 15 2781 10 2320 14 3534 13 2506 7 7533 4 6996 6 7600
3836 -0.27205500874028543 0.43524062505544298 14.756616597218423 51 56 64 0.27197797698413012 10 5925 20 6748 19 7007 18 6304 16 3565 17 6007 2 6336 13 6254 5 4413 11 5953 7 5506 4 6434 6 9101
3405 -0.53238325908043116 1.8912769541286945 7.6831743421581988 94 83 80 0.10852500161257513 20 5879 19 5791 15 3574
3407 -0.6178487501271821 1.7402602764730211 7.1959970826760937 161 141 126 0.22870367260438423 20 3550 19 5795 15 8458 13 8191 14 8507
3617 4.9404396389498899 -1.1787762594003497 19.491734907942362 46 56 69 0.083258498782928986 10 5481 20 6295 19 6623 18 5850 15 8844 16 5222 14 8752 13 8448 2 8245 5 6996 11 5872 7 7629 4 8895
4291 0.20044977343010736 0.18386585569983194 16.520723359448635 129 139 140 0.078342739753820473 20 6616 19 7894 18 6176
3408 0.63637880916154377 2.1745146049158528 8.9073741479497794 80 80 80 0.080511906089482402 20 5811 19 5797 15 4994 14 5023 10 7864 13 4812 2 4565 5 6597
3780 0.77419961443616214 0.035138456269570295 16.182012565380752 59 66 72 0.6155816956656196 20 6574 19 6899 18 3017 15 5529 14 5499 13 5286 2 5155 7 7787 5 4881 6 7555 3 9062
3413 1.9799172093847901 1.4077961694530519 7.1231253919253197 221 195 168 0.080142407838853041 20 5880 19 5811 15 4910 14 8107 10 11381
3424 0.55050929527274861 2.1586236515556667 8.704140765911287 223 222 218 0.4788473969765264 20 5857 19 5834 15 5030
3728 -6.1506516227366896 0.13652670930383801 20.126562681229775 102 120 118 0.2908255614856266 20 6543 19 6810 18 7146 15 6184 16 6552 14 6240 2 6013 10 8518 5 8503 11 8430 7 9166 6 8845
3425 2.5041426059387293 1.5974177368528235 7.7707324278445613 51 47 48 0.68042890834056946 20 10384 19 5837 15 4935 14 8109
3732 5.961959224481185 -0.41231227967556922 19.107852167511215 42 55 67 0.092269314684709211 10 5591 19 6816 15 9059 14 5883 13 8599 2 8373 5 7187 11 5600 7 9285 6 8914
3429 3.5093446453565962 1.6495211573435111 8.220458118704844 68 65 66 1.5705064397524002 19 5850 15 4912 14 4794 13 7770 2 7328 5 6370 11 7387 7 8341 6 7703 20 5817
3736 0.89361851208902054 -0.17967333285443257 16.165669118908941 61 68 75 1.3984552357541749 20 7488 19 6822 14 5431 2 5094
3433 -0.26326132778823585 1.9152100875833349 7.6603346886195069 175 210 248 0.31106006642758438 20 10036 19 5857 15 5069
3434 3.2430508844577575 1.7265508217298797 8.3346296248364666 55 53 56 0.41513155049540884 20 5830 19 5858 15 4930 10 8532 14 4826 2 7374 5 10213
3740 -5.6226924383822992 0.21394314094598324 19.698120926102693 53 65 77 0.14521613444000828 20 6575 19 6828 18 6135 16 5518 17 5764 13 5305 2 5194 5 4287 11 4990 6 4524 1 4738 3 5495 8 6433
3437 1.589807365501021 1.5534142009087317 7.2848298490898298 57 52 51 0.25619126845871831 20 5940 19 5863 15 4998 14 8226 13 7921 10 7581 2 7484 5 6373 11 11158 7 8287
3439 -0.53357663555565205 1.9255617206598203 7.554371626784393 73 69 68 0.054514033959692045 20 10072 19 5866 15 5094
3440 4.4776604098107544 1.7130267833107016 8.676418619647869 94 91 100 0.22615540008937682 20 5794 19 5867 15 4902 14 7947 2 7267 5 10162 11 11235
4323 -0.44788206313208917 0.28370658879639965 15.578965501861658 49 55 64 0.14504074703448952 20 6659 19 7980 18 6221 15 6416 16 5614 17 5925 13 6065
3441 1.5716399103499377 1.5591068791396343 7.2753965629749446 163 142 126 0.12911205886113764 20 5949 19 5868 15 5004 10 5429 14 4944 13 4721 2 7496 5 6387 11 11170
3812 -0.97480852131426765 0.2723988072852338 14.308589864647978 64 69 74 0.1331246771029842 20 6685 19 6960 18 6257 15 6439 16 5650 17 5937 14 5609 13 5374 2 5243
3445 2.537213349379325 1.6047733955149137 7.7260205900609158 65 57 58 0.220724468553682 20 3539 19 5873 15 4965 14 8147 13 7852
3816 3.7531848008592399 0.11573222087086092 15.913106489580821 45 54 62 0.14073439153787304 20 6607 19 6966 15 5565 16 5555 14 6202 10 5751 13 5304 2 6032 5 5027
3449 2.6249663212852239 1.6040017537222884 7.7402498198208436 174 137 122 0.25402430105143681 20 3540 19 5881 15 4966 14 8681 13 7849 10 7509 2 7396 5 6378 11 11194 7 6355 6 7667
3450 2.5109408447349089 1.5989864873721553 7.6769356602824672 77 67 65 0.049617378685094186 20 5910 19 5883 15 8394
3820 -1.5261711077823117 0.35216986489403923 14.090868075677598 48 55 63 0.24965931118796067 20 3270 19 6977 15 5602 14 6533 13 6202 10 8762 5 8772
3453 2.0240390775562123 1.4625058137679368 7.1194686030115841 60 57 55 0.2567685207597849 20 4283 19 5887 15 4995
3455 4.491299394482767 1.748276011889478 8.7254799885469243 221 208 199 1.1888771306915842 19 5890 15 4921 14 7967 20 3481
15119 -1.2028727228616309 1.2162784940068694 8.1425535860014637 161 149 140 0.3847446722516209 5 1759 7 1836 4 2044 6 1725 1 2227 3 1985 8 2279 12 2367 9 2291
4846 -1.0772458638922897 1.3226477363622449 7.9572332686088911 153 137 125 0.083119941829257041 20 9119 19 9068 18 9354 16 5806 14 7685
3456 0.53753118997513327 2.174774110745874 8.555961093192785 149 146 142 1.7024479501051932 20 5922 19 5891 15 8587
3459 3.7899427039607958 1.7676444364758335 8.5135842667076407 253 240 226 0.27156235203143891 20 3504 19 5899 15 4959 14 8067 13 7814 10 11444 5 10277
4112 1.4476073056330416 0.73520646183153071 10.273670919645241 77 74 71 0.067816540685546725 20 7701 19 7536 18 8192 15 6891 16 7705 17 8144 14 6344
3605 -4.3088853986373623 -0.98043040055504027 20.368458505442959 67 86 99 0.28567682560670588 20 6353 19 6599 18 5909 15 8859 16 5292 17 5604 14 8834 13 8501 10 5513 2 8278 5 6947 11 5645 6 7399 1 7066 8 10530 12 7435 9 10692
3460 3.5870027309267964 1.7011031147382916 8.2512509085097197 77 75 74 0.503544913514688 20 5862 19 5900 15 4961 14 4828 10 7485 13 4626 2 7359 5 6430 11 11281 7 8420
3461 3.732029049264435 1.766211972955267 8.4892397341042312 151 133 127 0.12485163307001164 20 5851 19 5901 15 8372 14 8073 13 7819 10 11459 5 10276
3464 2.2512657059307002 1.6188411700151384 7.5857715739330533 91 76 71 0.090307568030547902 20 5950 19 5904 15 8445 14 8201
3470 3.8777304843120199 1.6820561813360229 8.2769362539556344 138 137 129 0.11099518918456761 20 5865 19 5914 15 8365 10 5339 14 8044 13 7790 2 7341 5 10217 11 11261 7 8394
4639 4.2557991064698868 0.9390903062489 10.428880042596116 144 139 126 0.085400669760582651 20 4753 19 8638 18 4634 15 7036 16 2978
3681 -0.19280019783638028 -0.35134988900559766 17.641656730491881 65 72 82 0.1464673625337384 20 6448 19 6749 18 6009 15 9030 16 5385 17 5737
3472 3.3774956715804243 1.7314895201622897 8.2434845832644505 71 65 63 0.15122792862645529 20 5881 19 5919 15 4988 14 4851 10 4201 13 4654 2 4357 11 7452
3475 3.845136609607589 1.6953231885986764 8.2849619444184608 210 199 188 0.095807608173199957 20 3531 19 5926 15 4973 14 8053 13 7802 10 7467 2 7349 5 10248 11 11282
3685 3.4456057132564433 -0.50801092594909525 16.442803346058842 66 73 79 0.065176992385727314 10 5922 20 6414 19 6753 18 2686 15 5402 14 5344 13 8578 2 8350 5 7111 11 8423 7 9152
3476 1.8440335545635427 1.4872284029844263 7.050652104669016 229 189 163 0.1340199586815248 20 3071 19 5929 15 5032 10 4246 14 4945 13 4722 2 4423 5 6376 11 7357 7 8248
3477 2.0912060406216231 1.4583009963241187 7.0473628442755896 255 253 202 0.033158908512795814 20 6003 19 5935 15 5021
4122 2.9652272740594192 1.3983294615895874 8.4983707253103695 52 48 52 0.091886313929431335 20 10335 19 7554 15 7879 10 10985 5 8073
3689 -4.9147962987276372 -0.1117610472794682 19.654908230864834 55 70 81 0.43492477824691606 20 6492 19 6758 18 6058 16 6477 14 6128 13 6077 2 6009
3480 2.5995765249094771 1.6205293409886352 7.6352224428608126 137 117 109 0.31102515935859737 20 5962 19 5942 15 5022 14 4906 13 4696 10 7564 2 7446 5 6435 11 7423 7 8386
3693 -0.57508492822531931 -0.28227177850731916 16.717279420158874 89 103 107 0.21059422513599271 20 6472 19 6764 18 6036 15 9052 10 8323 16 3547 14 5996 13 8636 5 8466
3484 1.5193181734391148 1.6175395729333588 7.2224109492959911 102 87 78 0.043865524189373256 20 6033 19 5952 15 5081
3486 3.0792691206319147 1.8355115499216896 8.3255001433429161 144 133 132 0.13426070951189842 20 5938 19 5959 15 5044
3633 1.0406989919238649 -0.71750098289262088 16.823279984929474 66 77 83 0.21022191528440878 10 5548 20 4199 19 6654 18 5933 15 5349 16 3466 17 2524 2 8095 5 7007 11 5889 7 12178 6 8716
3488 3.8738977063625883 1.7177399364382746 8.2417445390644701 89 84 83 0.083636838618652787 20 5930 19 5963 15 5014 10 5350 14 8102 13 7838 2 7379 5 10317 11 11346 7 8466
3796 -6.6387792017706921 0.63836574928523093 19.209855370811891 76 95 106 0.2203593679710705 10 4709 19 6929 18 3285 15 5582 16 2352 17 2638 14 5672 13 5411 2 5305 5 4345 11 5045 7 4713 4 5504 3 5538 8 6457 12 6655 9 6571
3493 1.9787667494016028 1.528653619048753 7.0483347774133049 45 42 42 0.66406145817597995 20 4278 19 5983 15 2934
3504 3.5506941046196707 1.7964620140469383 8.1956793746725776 114 102 99 0.18714694409695737 20 5997 19 6019 15 5085 14 4918 10 7598 13 7934 2 7479 5 6546
3507 4.2904541457123404 1.7668147501745073 8.3349178249441813 251 237 227 0.29499961899979715 20 3057 19 6029 15 5064 14 4866 2 7406 5 10441
3508 4.4470712429461408 1.7568065125302066 8.3244289362484505 208 197 196 0.31393903517514388 20 5988 19 6043 14 4862
3509 2.734796423938171 1.690138254911443 7.5815276132584613 94 86 81 0.16497264640902781 10 7663 20 6095 19 6051 14 8303 13 8031 2 7544 5 6538 7 8522
4154 5.3543755034238778 0.68934168267923224 13.747461194382396 55 59 65 0.20039507888857067 10 6097 19 7623 15 6078 14 5744 13 5557 2 5663 5 5273 11 9359
3593 0.19804409843529591 -1.6393408613981337 26.738089197371988 73 95 105 0.13045382629351182 10 5473 20 6285 19 6576 15 5269 13 8437 2 8236 11 5651 7 7594 4 5985
3512 1.7244108719225455 1.6003786733150409 6.9925939000891546 111 94 87 0.093763824322216638 10 7765 19 6061 14 5078 13 8162 2 7645 5 6533 11 9869 7 8490
3597 4.175383146848282 -1.4367086935855589 20.99188847309901 55 71 86 0.09016878890998474 20 6273 19 6583 10 5466 18 5831 2 8224
3516 4.1274025596103234 1.8241558891442273 8.190913466387304 187 171 170 0.10818743471241966 20 6111 19 6132 14 8243
3518 1.5708429232136729 1.7158674557698246 7.0600840112277572 107 97 93 0.12053684897734757 10 7926 19 6147 2 7796 5 6665 11 11495 7 8654
3523 1.7004333289530673 1.7270661913726515 6.9162515259133057 216 177 137 0.039191372892643857 10 4737 19 6254 2 4712 5 6747 11 7705 7 6602 6 8024
4897 -0.38670570823628969 1.8544077674631931 10.03172878630329 46 46 49 0.086453084327482332 20 9089 19 9156 18 9273
4176 4.5597240746582672 0.93311940257304971 13.775333202163438 49 55 62 0.44278168995191824 20 7466 19 7667 2 5917 11 5549 1 7604
3524 1.4009430385060124 1.7502887756698702 6.6940074103474476 74 68 71 0.16503430513661368 10 5283 19 6355 2 8064 11 11810
3534 -0.43692477750301006 0.21750064831018437 15.695759482257998 87 93 96 0.3489652509422832 20 6640 19 6455 15 6369 17 5911 13 6008 10 8607
4703 4.4142593100917349 0.97721428368719232 9.9183865797754773 50 50 55 0.3769031940284302 20 4864 19 8780 15 7170 14 6948 13 6633 2 3636
3539 2.000337860742782 0.47311614605329733 15.924351001834312 45 52 59 0.24323356959881237 20 6724 19 6462 15 6652 16 3541 18 2669
3749 0.98239068146820319 -0.13098618784658456 15.872040871120491 101 115 113 0.47610587512310537 10 5653 19 6839 18 6084 15 5492 16 2483 17 2641 14 6084 13 5785 5 8591 11 8493
3540 1.9642731752848739 0.51040151964167835 15.876229688131851 49 54 61 0.1250173694555276 20 10341 19 6463 18 7406 16 6849
3541 1.0511062891985694 0.30763109463614691 10.504118582216067 135 127 122 0.19676490829028689 10 5956 19 6466 15 6786 14 6670 13 6386 2 6414 5 5182 11 5985 7 8837
4186 1.3185154638484442 0.59202884373663367 9.998847395030209 169 159 148 0.3108343831444878 20 4508 19 7692 18 4391 17 3428
3550 5.1610845705686206 0.96609641716121408 13.532194446117192 83 90 92 0.052417046910076759 20 4466 19 6484 15 6320 10 6275 14 6230 13 8330 2 5982 11 9574
3697 4.5680601386079251 -0.50489065553664558 18.272344918518897 45 53 64 0.2196271920441015 20 6403 19 6769 18 5955 13 8586
3552 0.9744539762917569 0.85589388099862507 9.7913912203043676 42 43 47 0.18434954526570299 20 4687 19 6488 18 4584 15 6114
3555 3.6330760386599241 1.3462967837092301 13.162398866813358 76 81 86 0.15600901359126323 20 4653 19 6495 18 4499 15 6975 10 6516 16 4195 17 4508 14 6872 5 5111 11 9895 7 10492
4208 2.2802685858872778 1.3809807717256646 9.5904754801851269 50 49 49 0.043953490218383628 20 8903 19 7742 18 9096 16 8672 17 4979
3701 -2.4801618800248662 -0.14966438112089425 19.720787195856477 49 60 71 0.12993552705702682 20 6484 19 6776 18 6045 15 5457 16 5418 17 5736 14 5439 13 5237
3556 3.3530242516652766 1.4176532772041304 13.327547345583643 126 137 136 0.38020129235804628 10 6553 20 4665 19 6496 18 4514 16 4206 17 4502 5 7227 11 9934
3557 0.322795143602849 1.0048243251449835 8.9578964834836174 159 158 147 0.098530092238040642 20 4903 19 6500 18 4788 15 7156 10 6650 16 4518 17 4523 14 7110 13 6766 2 6527 5 5513 11 9730 7 10287
3705 6.0706711075016049 -0.54579557880195462 19.105855644696241 72 87 95 0.086438935445214277 10 5983 19 6780 15 5158 14 8879 13 8576 2 8351 5 7155
3560 -0.95026530033814183 1.1916141666481237 8.0487460916355218 68 63 64 0.23098405330203833 20 5177 19 6505 18 9152 15 4292 16 4836 17 6599 14 4440 13 4230 2 4000
3709 -1.0175155512404805 -0.20683639050565197 16.800245537081544 49 59 67 0.5969074146193496 20 6486 19 6785 18 7061 15 5458
3564 2.4100482864481902 1.5030741144702751 9.6503119185520916 51 49 51 0.061786909648656109 20 5257 19 6513 18 5149 16 4908 17 5079
13839 2.4589494167236952 1.591463369375635 7.6221403551218891 87 80 77 0.076703442327462595 10 11535 5 10166 11 11206
3566 -1.2268920328211512 1.5032300041900923 7.9988968758041201 46 46 47 0.23197596699619638 20 9315 19 6515 15 4554 10 7343 14 4696 13 4445 2 7231 5 6014 11 7048 7 6075 4 6459
4735 1.60309349304117 1.2091943054276566 9.4466201115074924 57 55 57 0.23644287547542445 20 5019 19 8858 18 4912 15 7342
3649 5.4341166119456865 -0.81321392575951035 18.706139161705238 43 55 67 0.13983478692041271 10 5544 20 6351 19 6696 18 5892 15 5357 14 8807 13 8522 2 4981 5 7074 11 5709 7 7691 4 6132
3568 3.5153155828008678 1.1782267582711434 8.5765718291894792 54 54 56 0.017802168062190808 10 10535 5 7763
3571 -0.92865110479645296 1.6559404407590896 7.8049430217158262 54 47 47 0.16549371536841498 20 9594 19 6524 18 6324 15 4751 14 4854 13 4616 2 4387
3653 0.84575965834401146 -0.55938739016654604 16.535951414508602 111 123 125 0.31340872011898219 10 5755 20 6404 19 6702 18 6937 15 5381 16 6362 17 5713 5 7042 11 6251 7 9035 6 8738 3 8965 8 6422
3572 1.3060109341883095 1.8125791619460241 9.0072835301294969 52 49 52 0.11217377083350372 20 9512 19 6525 18 9755 15 8065
4218 -5.3491153671620051 1.748147312465959 13.359887335818263 50 58 64 0.17536721854284762 20 8237 19 7761 15 6923
3657 2.1387719980900588 -0.61350209240940989 16.556778811073222 56 66 74 1.0322413349430799 20 2229 19 6709 18 5951 16 5329 17 5724
3576 1.9389870324844274 1.3625518494178299 7.2299033436139126 108 119 132 0.17035230683751423 20 9790 19 6530 15 3619
3661 -0.15376525377694517 -0.48816400424481748 18.042801155629082 54 67 77 0.3170915723086592 20 6418 19 6717 18 5978 15 8993 16 5355 17 5706
3580 1.8318029878395938 1.5264269311152159 7.0078405887748136 59 52 50 0.31250340095632562 20 6084 19 6543 15 8577 10 11710 14 8319 13 8021
3600 5.1653476509962646 -1.3288356963591061 19.343677771946439 76 96 106 0.36256472058776906 10 8043 20 6274 19 6587 14 8723 13 5571 5 8249
4995 2.1448331964535687 1.2386542293156615 7.9534799816227935 143 124 116 0.08729537694514955 10 10877 20 9331 19 9336 18 9623 15 7807 5 7905
3610 5.6780889525040381 -1.2903658210257405 19.670409822214605 77 94 104 0.46871164261831483 10 5150 19 6608 15 5277 14 5242 20 6282 13 5068 5 8273
5013 0.053325693348276811 1.763083789309448 8.943323260272825 53 53 55 0.019326936318736009 20 9390 19 9365 18 9594
13888 0.72059015597980636 2.167184141385071 8.9013012316804598 73 78 82 0.051876340940747973 10 12086 5 10563 7 8764
3615 -1.9538239664243595 -1.0269165327450962 21.697088228350637 46 63 78 0.086506675864101615 10 5515 20 6340 19 6617 18 5889 15 5306 16 5272 17 5612 14 5135 13 4954 2 8276 5 6965 11 5658 7 7600 6 7410 1 7076
4494 2.7803233464349142 1.0654019812281177 13.193790395839809 54 60 63 0.075764722756679448 20 7581 19 8322 18 8081 16 7538 17 4306
3626 -2.834363621140028 -0.70655090548862387 19.755171267020899 66 78 88 0.16728330043890469 10 4802 20 6387 19 6642 15 8920 16 6306 17 6923 14 8883 2 5002 11 4898 7 4457
3631 2.5051514605648295 -0.78502951831414303 16.278451366872492 58 70 81 0.19976219277747029 20 2833 19 6650 18 3874 15 3612 17 2528 13 2298
3632 -2.3481496340836747 -0.65258735285951897 20.071311752656239 61 73 84 0.3449657256563386 10 5752 20 6392 19 6653 15 8941 16 5325 14 8890 11 8262
5027 4.0164178525833476 1.2582525005330485 8.5474143279294363 88 79 79 0.21289621350677129 20 9283 19 9392 18 9563 15 7784 14 7476
5045 0.78471261501893763 1.6940146356786816 8.7851980325167691 58 53 55 0.27861922535448347 20 9426 19 9420 15 7950 14 8607 10 9593
3647 2.47700371674956 -0.6574693243559615 16.283111163766367 56 64 72 0.13666010217502395 10 5561 20 6383 19 6693 18 5942 15 5364 16 3551 17 2548 14 5136 13 8543 2 8317 5 7044 11 8334 7 9046
4526 -8.1553064282984185 1.364439639257877 17.357646701126207 72 90 98 0.11918264989070812 20 7341 19 8408 18 7736 16 7139 17 7216
3663 3.2350321310928267 -0.62278817536445574 16.428655886744636 57 67 76 0.55048427585189275 20 2850 19 6720 18 2667 15 5379 16 2410 14 5329 10 8182 13 5144 2 8325 5 8415 11 8363
3680 4.1715993267491438 -0.55828634745345318 18.104550558402586 82 92 97 0.20801175722596457 20 2853 19 6748 18 2670
3695 6.179808412818435 -0.58246968178340586 19.223406615000464 75 90 98 0.049375739064682442 10 5911 19 6766 15 9010 14 8870 13 8572 2 8347 11 8488 7 9220
3696 0.89106411764369564 -0.33257089339853479 16.424691392011439 51 61 68 0.25249222234731017 10 4840 20 6454 19 6768 18 6016 15 5435 16 5403 17 5774 14 5392 13 5199 2 5050 5 4258 11 4967 7 4630 4 5438 6 4489 1 4742 3 8994 8 10591
3706 -6.5891519138327608 0.030590512314168733 19.301292822091181 87 108 114 0.21897027520930842 20 7556 19 6781 18 6095 15 5479 16 5473 17 5722 14 5509 13 5275 2 5148 10 2152 5 1964 3 5458 4 2387 8 6406 12 6620 9 6530
3711 -0.081976420386817295 -0.23744292705182488 17.081785429156326 51 60 70 0.32697200596321274 20 6478 19 6787 18 6043 15 5454 17 5777 14 6015 2 8413 10 8347
14863 1.8621682531929744 0.538413509155103 12.213618285191941 0 0 0 0.66265554168636331 10 6058 16 362
4590 -4.6275167221053524 1.2091768647233472 16.126805522009107 115 136 139 0.061622473491314292 10 6283 20 7406 19 8520 15 5989 14 6443 13 6400 2 6158 5 5453 11 11421 7 5848 6 4901
3715 3.240844285489441 -0.40710315350585768 16.095787123376912 53 62 70 0.89056431509798084 20 2879 19 6792 18 2700 15 2503 15 9047 16 5376 17 2624 14 6139 13 2339 2 2258 5 1977 11 2190 7 4641 4 5447 1 4725
4880 2.3274676376429024 1.4581168861709128 9.6425285936200975 49 47 47 0.110848633646825 20 8989 19 9124 18 9178 16 8754 17 9191
3717 -4.4591781846787395 -0.011565770285363175 19.406136570387638 50 62 74 0.070365499127374539 20 6513 19 6794 18 6079 16 5455 13 5263 2 5132 4 5258 6 4505
3726 3.2798408821881266 -0.35206960541441135 15.998565511304209 58 69 77 0.20451635115512351 20 10712 19 6808 18 6999 15 5444 10 4833 14 5380 13 5192 2 5043 5 4286 11 4996 7 4655 4 5455 6 4509 1 4711 3 5491 8 6475 12 6671 9 6574
14656 -2.0598381282593423 1.3434144332898983 12.671617399617622 49 55 60 0.024028001363044615 5 10174 10 9935 11 9543
4383 -2.1158444266364467 1.5089225014016645 12.217130168929332 53 56 60 0.10300817727599884 20 8318 19 8085 18 4576 16 4253 17 4242
3731 5.3487557151280667 -0.40659759528840261 18.270556934390271 44 53 65 1.0751333079573937 10 8278 19 6815 18 2687 13 8601
3733 2.8534100439777528 -0.29543588442901747 15.987477595028524 60 69 74 0.35419771410186884 10 5614 20 6466 19 6817 18 6028 16 5409 17 6972 14 5958 13 8630 2 8394 5 8568 11 8486
4890 4.5721716796608955 1.2793012245420103 9.7100841434016356 109 100 98 0.07565075657591841 20 8902 19 9145 18 5060 16 4845
3742 -5.0709367992614238 0.19590315162380137 19.437671222859194 51 65 77 0.60361200013166372 20 6571 19 6830 18 5756 15 5508 16 5519 17 5768 14 5536 13 6232 2 5187 2 6056 5 4288 4 5456 6 4525 1 4735
3763 3.1972584937510673 -0.1662436286695588 15.774164009378815 59 67 75 0.16869247069216078 20 7513 19 6866 18 6068 16 5450 17 3752
3765 0.2100257991678797 0.0084770896340324604 16.710576593573933 115 131 128 0.32819831593358328 20 6545 19 6870 15 5515 14 5486 13 5277 2 5144 5 7199 11 5813 7 4682 4 5477 1 7192 6 7543 3 9049 8 10640 12 7528 9 10759
4922 0.51770868967678751 1.5600043824571399 8.9813793266338084 36 37 40 0.38887679991094953 20 9172 19 9208 18 9389 16 5845 17 9073 14 7695 10 7211 13 7396
3774 0.23003965514399397 0.046766730135535457 16.718082661074291 55 63 72 0.15977139753652886 20 6561 19 6882 18 6127 15 5525 16 5522 17 5858 14 5500 13 5285 2 8505 11 5821
3779 0.092427040015319067 0.082610585710184509 16.848674771114016 105 117 117 0.10795522920704384 20 6573 19 6894 15 5531 16 2513 14 5510 10 5729 13 8310 2 8520 5 8662 11 8566
4129 2.6485135931242865 0.78480949436625758 13.471928147455378 91 87 80 0.02887423521079337 20 7544 19 7567 18 7819 16 7280 17 4110
4944 3.7867261690341691 1.1578365407599946 8.5748939400656656 75 70 71 0.26440809769483609 20 9099 19 9241 18 5235 15 7631 16 3491 17 5418 14 7360
